ply
format ascii 1.0
comment VTK generated PLY File
obj_info vtkPolyData points and polygons: vtk4.0
element vertex 236
property float x
property float y
property float z
element face 0
property list uchar int vertex_indices
end_header
-1.26144 -1.41787 -4.53242 
0.702393 2.67236 -7.67166 
-1.22699 -1.3503 -4.58892 
-1.34743 -1.4243 -4.41978 
0.562224 2.67497 -7.49109 
-1.33767 -1.32721 -4.43675 
-1.33871 -1.32609 -4.43832 
-1.33486 -1.34036 -4.43916 
-1.3612 -1.3192 -4.41913 
-1.24499 -1.3541 -4.56431 
0.538188 2.6068 -7.44387 
0.716625 -0.398151 -6.77328 
0.764621 -0.208638 -7.08124 
-1.24548 -1.35501 -4.56462 
2.57602 -1.05051 -9.8504 
0.732531 2.41041 -7.69701 
-1.24441 -1.37383 -4.56131 
0.665552 2.61844 -7.6318 
-1.24444 -1.37643 -4.56126 
-1.35802 -1.33132 -4.42163 
0.730684 2.36796 -7.70101 
0.906349 -0.290533 -6.96638 
0.731259 2.39546 -7.69202 
2.53746 -1.00918 -9.7924 
0.538318 2.42276 -7.43436 
-1.22793 -1.45118 -4.58704 
-1.36944 -1.4475 -4.38944 
0.742544 0.0815677 -7.08523 
0.65403 -0.415928 -6.78606 
2.57727 -0.969351 -9.86959 
2.57599 -0.985554 -9.85516 
0.551063 2.40247 -7.42097 
-1.37145 -1.44927 -4.38947 
0.643061 2.30808 -7.56813 
0.730488 2.37761 -7.72986 
0.893265 -0.238312 -7.01554 
4.75807 2.70393 -12.5548 
-1.84695 -0.182458 -4.99025 
0.647734 2.5143 -7.59927 
0.833996 -0.385021 -6.83725 
0.896863 -0.275286 -6.90354 
-1.89452 1.53746 -5.09685 
3.63678 -1.0663 -11.1888 
-1.37176 -1.43441 -4.38856 
0.844178 0.0516094 -7.10799 
0.884167 -0.330487 -6.89088 
3.83898 4.18253 -12.0095 
3.63687 -1.26983 -11.1618 
0.838553 0.320783 -7.15514 
0.557157 2.54648 -7.46501 
0.646581 2.66572 -7.6135 
0.563989 2.41278 -7.44043 
0.873393 -0.291138 -6.89212 
0.499132 2.52984 -7.39225 
0.964901 -0.31156 -6.89778 
0.617024 2.69561 -7.55495 
0.464391 1.73035 -6.77187 
3.64785 0.413391 -11.411 
0.63937 2.5682 -7.54573 
0.752004 -0.0409627 -6.9954 
2.06451 -0.0533959 -8.55561 
0.583009 2.35346 -7.50745 
3.75801 1.61575 -11.6093 
0.565136 2.62688 -7.46797 
5.63142 3.04826 -12.6838 
-0.0545427 0.868078 -6.38205 
0.88931 -0.400709 -6.84829 
0.844992 -0.0457279 -6.99262 
0.759161 2.53438 -7.74028 
-1.3558 -1.42828 -4.40245 
0.88043 0.250874 -7.16384 
0.955381 -0.246872 -7.03563 
0.492005 2.45148 -7.43092 
0.675579 2.49852 -7.63438 
0.645714 2.4436 -7.55415 
0.638058 2.44938 -7.5729 
0.905243 -0.523039 -7.03345 
0.80017 0.0162504 -7.12152 
0.477552 1.74906 -6.72835 
0.932934 -0.213524 -7.04162 
0.910813 -0.33018 -6.87878 
3.62798 -1.34816 -11.1674 
0.930839 -0.216079 -7.05088 
-1.81876 -0.9244 -4.85737 
0.748456 0.119436 -7.1099 
0.713935 -0.420837 -6.75983 
1.73771 -0.960748 -7.84474 
0.488228 2.44749 -7.42207 
0.977695 -0.365449 -6.90479 
0.0635435 -0.19396 -6.30008 
2.52432 -0.879302 -9.82007 
0.660884 2.37816 -7.6059 
-1.92928 1.43921 -5.22532 
0.95289 -0.800423 -6.83353 
0.0629812 -0.142853 -6.30055 
-0.152461 0.154785 -5.65139 
0.66194 2.30134 -7.60631 
1.09899 2.48648 -8.35965 
0.799826 1.97894 -7.16977 
0.965962 -0.372147 -6.90175 
-1.35208 -1.35021 -4.4155 
0.0847329 -0.0975099 -6.32835 
0.520362 2.59184 -7.43839 
1.21898 1.95634 -7.64631 
1.13083 0.690918 -7.50475 
0.542719 2.6438 -7.44355 
-0.674349 1.09202 -5.84734 
0.841344 -0.0448099 -7.02112 
0.583805 2.44372 -7.49619 
0.696473 2.31816 -7.65905 
1.00029 -0.312902 -6.88952 
-1.90159 1.00788 -5.05222 
0.965562 -0.283514 -6.94681 
-1.68664 0.939034 -5.03705 
3.6759 -1.30918 -11.1336 
0.69045 2.44735 -7.6384 
0.91635 -0.480769 -6.94099 
0.60016 2.70589 -7.53828 
0.71493 1.0316 -6.83705 
-1.22118 -0.140283 -4.93225 
0.061451 -0.722167 -5.70553 
-1.53555 1.15557 -4.94394 
0.521364 2.58747 -7.44656 
0.936513 -0.344028 -6.89244 
0.0620498 -0.193677 -6.30162 
0.705554 -0.348242 -6.78877 
4.74537 2.64123 -12.6074 
1.09708 2.48945 -8.36642 
0.638928 -0.358437 -6.84369 
0.51939 2.48831 -7.41132 
0.717521 1.85042 -7.12163 
-1.22239 -0.139975 -4.93304 
0.925845 -0.314965 -6.89365 
0.691475 2.56643 -7.63907 
-1.08763 1.10008 -5.25987 
-1.02142 1.10423 -5.35461 
1.62067 1.43052 -8.91102 
-1.24663 -1.47713 -4.54946 
-0.657339 0.441652 -5.77073 
0.410148 1.70857 -6.70037 
0.319494 2.53869 -7.30677 
0.718393 -0.813128 -6.55272 
-1.66646 -1.28822 -4.63362 
-1.25702 -1.47528 -4.53741 
-1.02106 1.10402 -5.35218 
2.72067 2.28907 -10.4838 
-1.42425 -1.30802 -4.3631 
0.644486 1.00969 -6.72121 
0.182892 1.04249 -6.22869 
0.567137 1.01665 -6.62359 
-0.222295 -0.429252 -5.67737 
1.1907 1.97955 -7.62872 
-0.00985331 2.42418 -6.87302 
0.257379 2.43579 -7.21937 
-0.619713 -1.49907 -4.69327 
-0.209461 -0.375557 -5.71211 
0.675081 -0.408755 -6.78617 
-1.82064 -0.142527 -4.95377 
0.550918 2.42172 -7.41511 
0.467732 1.56972 -6.47805 
2.10192 0.189059 -9.39556 
0.953812 0.256395 -7.1487 
-1.01766 -0.727893 -5.13117 
0.563292 2.50608 -7.45556 
-1.42288 -1.30749 -4.36202 
0.182316 1.00166 -6.29294 
1.17389 1.04414 -7.434 
0.617639 2.3067 -7.56803 
0.654278 2.5286 -7.56898 
-0.0131342 1.51971 -6.70312 
1.1297 2.45245 -8.36746 
-1.60383 -1.47298 -4.4158 
-0.197412 1.48612 -6.49815 
1.30599 1.01346 -7.63739 
0.771045 0.28735 -7.14224 
-1.02648 1.78898 -5.45099 
-0.666216 1.08015 -5.87477 
0.193887 -0.450149 -6.45853 
-0.669792 1.11391 -5.85188 
0.681824 1.91774 -7.09349 
1.51253 1.48985 -7.75138 
3.6575 -1.09825 -11.207 
0.139395 0.239379 -6.44892 
5.38422 3.31853 -12.8252 
-1.7171 -0.633042 -4.89208 
0.723598 -0.00746338 -7.00437 
0.93695 -0.372208 -6.88081 
-0.611212 0.238635 -5.84201 
-0.733175 0.135172 -5.63989 
-1.2212 1.55939 -5.14837 
1.16124 1.0211 -7.42587 
0.192815 -0.452405 -6.46377 
0.309835 2.16795 -7.26551 
3.73089 -0.404745 -11.3656 
-1.71698 -0.632645 -4.89142 
0.673549 -0.794228 -6.47155 
0.852922 0.822609 -7.22674 
0.989411 -0.794051 -6.88844 
0.695986 2.54939 -7.65688 
0.178624 -1.04664 -5.71713 
0.650662 2.34507 -7.57985 
-0.312335 1.94491 -6.40566 
3.68442 -0.815753 -11.2535 
5.38485 4.01509 -12.8866 
2.60602 1.28718 -10.1733 
3.70478 -0.806829 -11.2299 
3.6813 -0.814767 -11.2418 
0.553105 2.38166 -7.43493 
3.20645 1.87608 -11.0854 
-0.767562 -0.705371 -5.47214 
-1.32495 -1.44554 -4.44204 
5.34162 2.98867 -12.7618 
2.35872 1.56348 -9.90988 
-1.1367 0.671009 -5.1546 
-1.35532 -1.45559 -4.40683 
0.956434 -0.370239 -6.89245 
0.663126 2.37195 -7.59372 
-0.676809 0.255523 -5.75358 
0.0381886 -0.697835 -5.6269 
-0.235912 1.55454 -6.4594 
0.482869 1.00624 -6.69613 
-0.339487 1.96257 -6.3895 
-0.137094 -0.666157 -5.42555 
0.165849 0.265554 -6.38763 
-1.37772 1.38307 -4.90206 
0.503851 2.61715 -7.45781 
-0.547476 1.93755 -6.09938 
-1.14984 -1.2359 -4.8828 
-0.75501 0.21956 -5.59632 
-1.22359 0.297265 -4.99838 
-1.49285 -0.613866 -4.67405 
0.955621 0.829598 -7.35945 
-0.779275 -0.679137 -5.4681 
-0.174869 -0.380969 -5.77813 
-1.18167 0.0966824 -5.00937 
3.20008 -0.155351 -10.818 
