ply
format ascii 1.0
comment VTK generated PLY File
obj_info vtkPolyData points and polygons: vtk4.0
element vertex 278
property float x
property float y
property float z
element face 0
property list uchar int vertex_indices
end_header
2.45058 -1.05462 -8.09822 
-1.84766 -1.75227 -5.1376 
-1.79499 -1.71689 -5.19177 
2.45059 -0.92836 -8.12611 
2.44979 -1.0546 -8.09517 
-1.75159 -1.64828 -5.2187 
-1.85062 -1.73251 -5.14636 
-1.92518 -1.74856 -5.09817 
-1.84925 -1.6896 -5.15128 
2.45383 -1.02031 -8.10381 
-1.94267 -1.63082 -5.10261 
-2.50862 -1.33471 -5.53256 
0.633972 2.16068 -7.26244 
0.657187 -0.331094 -6.66591 
0.582823 -0.511739 -6.43302 
-1.90792 -1.64955 -5.11418 
-1.91274 -1.63573 -5.11468 
2.45258 -0.959254 -8.1107 
0.629787 2.13419 -7.21829 
0.698452 -0.413872 -6.62613 
0.582592 -0.462297 -6.53808 
0.743345 -0.432685 -6.46812 
0.838096 -0.408618 -6.48609 
0.539365 2.07096 -7.18954 
0.691265 -0.118521 -6.70992 
4.30165 2.19072 -9.14258 
3.31974 -1.14589 -8.61271 
-1.75173 -1.76161 -5.21821 
-1.95933 -1.77814 -5.07881 
0.633792 2.11582 -7.26406 
4.29045 2.18938 -9.10946 
0.73098 -0.0791654 -6.69677 
3.30048 2.51078 -9.08144 
4.02528 1.96264 -9.09583 
3.29606 0.220264 -8.77396 
-1.7478 -1.78139 -5.21135 
3.31195 -0.978623 -8.62072 
0.148075 2.11812 -7.04809 
0.836657 -0.406436 -6.4889 
0.801812 -0.149686 -6.6852 
0.857433 -0.449598 -6.43183 
3.10259 -1.97867 -8.15672 
0.768034 -0.3501 -6.56419 
0.699305 -0.493457 -6.44639 
-1.96035 -1.76123 -5.07859 
0.761208 -0.386116 -6.47219 
3.80835 -1.95415 -8.17783 
0.841863 -0.267544 -6.79879 
0.720522 -0.0681315 -6.65398 
0.751302 -0.506016 -6.44847 
0.290317 1.55113 -6.55104 
0.583095 2.08987 -7.22468 
-2.50513 0.225256 -5.78378 
2.40762 -0.879225 -8.10247 
-2.3992 1.72801 -5.99232 
0.475887 2.12378 -7.17436 
3.31051 -1.20872 -8.60591 
0.693909 2.14446 -7.29721 
0.836455 -0.469106 -6.43368 
0.761565 0.112833 -6.69607 
0.720398 0.176912 -6.70417 
-2.4963 -1.35174 -5.58064 
0.738499 -0.403102 -6.4691 
-2.28261 -1.53467 -5.55845 
3.36163 -0.988848 -8.62385 
0.42172 1.56009 -6.66823 
0.21575 0.911127 -6.48436 
0.559552 2.05378 -7.18825 
-1.93896 -1.75359 -5.08703 
0.810965 -0.467566 -6.3215 
4.32499 2.63538 -9.27651 
0.632429 -0.167471 -6.6088 
0.720755 -0.170172 -6.59513 
4.32169 2.37796 -9.25187 
0.389401 1.57219 -6.64604 
4.02693 1.98524 -9.15195 
0.637543 -0.0170473 -6.70047 
1.06043 2.15918 -7.63552 
4.25764 2.3489 -9.12255 
3.39091 -1.82937 -8.61043 
1.03049 2.17026 -7.64058 
0.772903 -0.438276 -6.4482 
0.718124 -0.169927 -6.59786 
0.597755 2.07041 -7.2281 
0.587495 2.17024 -7.24269 
0.676231 2.12311 -7.29371 
0.860016 -0.41848 -6.44356 
3.38777 -1.79918 -8.59999 
-1.93254 -1.66515 -5.09683 
4.22958 2.13466 -9.12525 
0.7867 -0.422763 -6.44475 
2.52855 1.80748 -8.5325 
0.43859 2.15856 -7.12768 
1.51867 0.728776 -7.17431 
-2.21811 -1.81788 -5.15483 
-2.49006 -1.26963 -5.58081 
1.91736 -0.161156 -7.32089 
0.536554 -0.462488 -6.54899 
0.873163 -0.473541 -6.4673 
0.826554 1.43187 -6.7126 
1.07971 1.70294 -7.00881 
0.797911 -0.449912 -6.44658 
0.815853 -0.885657 -6.37466 
3.39204 -1.19215 -8.69563 
0.576173 -0.468169 -6.48581 
1.01272 0.526691 -6.88268 
1.91052 -0.185719 -7.28469 
0.590159 2.05909 -7.25836 
3.3241 -1.78408 -8.57237 
0.816275 -0.47407 -6.43492 
1.86483 -0.154049 -7.29927 
0.515764 2.07086 -7.19804 
-0.971734 0.983405 -6.19606 
0.807252 -0.332647 -6.58326 
-0.111875 -0.332777 -6.28399 
1.6094 -0.99266 -6.89563 
1.87478 -0.103742 -7.33831 
0.367238 -0.627282 -6.39126 
0.270644 1.45283 -6.50095 
1.26138 1.17353 -6.95247 
4.02821 1.91965 -9.14647 
-1.43282 1.0212 -5.88334 
-2.49272 0.9349 -5.8963 
0.553062 0.870034 -6.50765 
-0.947311 0.306417 -6.10506 
0.650655 0.225821 -6.65488 
-1.92872 -1.66948 -5.09271 
2.01622 0.0397354 -7.95815 
0.750903 -0.167337 -6.59256 
-0.427824 0.0225811 -5.81027 
0.827316 -0.0638924 -6.66556 
-0.956376 0.966596 -6.20903 
-0.482926 -0.580108 -5.85944 
0.830191 -0.392572 -6.49108 
0.297315 -0.975757 -6.05335 
1.04432 1.71929 -6.97085 
0.79786 -0.477665 -6.43757 
-0.465425 -0.524613 -5.88098 
0.475444 0.855759 -6.4545 
2.4935 -1.10148 -8.12216 
0.640286 2.17146 -7.27468 
-1.78201 -1.79413 -5.19334 
0.750266 0.203032 -6.7036 
-0.175587 -0.86446 -5.76129 
0.542317 2.14641 -7.18456 
1.06141 1.71202 -6.977 
2.51465 1.26257 -8.44317 
-1.42581 1.48618 -5.95694 
0.568505 1.65096 -6.77612 
0.468936 -0.173631 -6.50553 
1.04383 1.72231 -6.97858 
0.856427 -0.879313 -6.41724 
0.530543 1.71944 -6.77301 
0.3538 0.639826 -6.43943 
-1.52721 1.02446 -5.8377 
0.566317 -0.910678 -6.21331 
3.34676 -0.773386 -8.65877 
0.390328 0.865703 -6.40077 
-0.435221 1.42058 -6.5754 
0.517101 -0.898702 -6.19442 
3.41728 -1.74845 -8.57718 
3.34752 -0.773438 -8.66006 
0.384098 0.945161 -6.38275 
3.33467 -1.1741 -8.6068 
3.38382 -1.19724 -8.66467 
2.95607 -0.245717 -8.53431 
0.423498 -0.270908 -6.46905 
3.44064 -1.82561 -8.52694 
0.86857 -0.899024 -6.4312 
3.20862 -1.96201 -8.08912 
-1.12808 -0.873086 -5.85173 
-0.563529 1.84416 -6.57813 
-1.15 1.19251 -6.09429 
-0.531861 1.82583 -6.57935 
-0.215763 -0.842247 -5.72052 
0.559159 2.13005 -7.20168 
-1.555 -1.20621 -5.5487 
-2.51041 -1.359 -5.53432 
2.40831 -1.09887 -8.0631 
-1.58449 0.564314 -5.72991 
1.46443 1.22643 -7.15446 
-1.01595 -0.926533 -5.90579 
-1.32572 1.49609 -6.0144 
0.68784 -0.321632 -6.68595 
1.55696 1.15645 -7.82161 
-0.158923 1.3044 -6.68825 
0.544968 2.10085 -7.18261 
-1.03999 -0.0117012 -5.9997 
0.606566 0.896304 -6.56598 
1.51557 -0.633526 -7.3499 
-0.389235 1.34947 -6.59765 
1.09287 1.67415 -7.01945 
-0.39795 1.37895 -6.59456 
2.11021 1.69827 -8.25221 
-1.93748 -1.78483 -5.09218 
-2.34831 0.788317 -5.85921 
-0.025504 -0.380097 -6.33614 
2.93826 1.42457 -8.76303 
-1.19706 0.541379 -5.97675 
-1.89136 -1.76647 -5.10657 
3.32935 -1.00428 -8.62791 
-1.00824 0.55172 -6.10208 
0.31975 -0.342724 -6.3942 
0.47323 2.09367 -7.16357 
-1.10107 -0.870327 -5.86407 
0.545937 -0.523635 -6.46254 
-0.879805 0.0947784 -6.13309 
-1.64717 -0.0538024 -5.60057 
4.23018 2.65625 -9.17928 
-1.71184 1.47318 -5.7814 
-1.10473 -0.0647314 -5.96056 
-1.07485 0.0766476 -5.98227 
-1.10155 -0.870544 -5.86562 
-1.7217 -1.47165 -5.39404 
0.11433 -0.892247 -5.94886 
2.44489 0.973996 -8.34836 
-1.67713 -0.0438143 -5.58076 
0.449462 0.0517489 -6.47749 
0.321943 0.0130412 -6.43106 
0.367486 -0.158742 -6.44535 
0.664891 -0.525221 -6.45507 
-0.426598 -0.819651 -5.60974 
0.761001 0.190008 -6.73134 
3.3668 -0.762466 -8.65375 
1.01303 -0.582265 -6.81289 
0.0447963 -0.587363 -6.37209 
3.30821 -1.95412 -8.46989 
1.91987 2.18367 -8.20981 
-0.162765 -0.108798 -6.28297 
3.44305 -1.77878 -8.49479 
0.729676 0.653156 -6.77241 
0.0302695 -0.099973 -6.41467 
2.93858 1.63286 -8.78175 
-1.93181 1.35462 -5.61099 
-2.48427 1.60645 -5.97693 
0.192649 1.9658 -7.05678 
-0.0355381 -0.0457898 -6.37144 
1.86051 0.642616 -7.93769 
0.318477 0.852262 -6.48351 
1.09285 1.67394 -7.01775 
-0.964889 0.114194 -6.0857 
1.08711 2.15596 -7.64215 
0.855783 -0.490467 -6.50979 
1.34037 1.0309 -7.10142 
-2.02724 -1.6232 -5.06785 
-2.50507 -1.37618 -5.52551 
-0.104561 -0.962089 -5.79292 
-0.420202 -0.529307 -5.92852 
0.127025 1.31981 -6.26872 
-0.0742754 -0.514831 -6.30338 
-0.0687275 -0.0932201 -6.35594 
0.505539 0.807642 -6.50129 
1.33197 -0.00148541 -7.183 
0.670352 -0.0020094 -6.71052 
0.37017 -0.266879 -6.4313 
3.33112 -0.955309 -8.63165 
0.223582 -0.985921 -6.01052 
0.508696 2.07126 -7.19962 
-1.19791 1.16551 -6.07048 
0.480304 0.88107 -6.44606 
1.32576 0.0443585 -7.22766 
-1.60579 -1.50528 -5.45829 
3.28528 -1.09437 -8.66491 
3.38971 -1.81433 -8.42135 
0.363445 0.784027 -6.46063 
0.835303 -0.558216 -6.56238 
-1.44004 1.4974 -5.94624 
0.260563 -0.870346 -6.06446 
3.41793 -1.6369 -8.52286 
0.322684 0.901341 -6.47265 
0.00902164 -1.5986 -5.69944 
-1.46694 -0.324804 -5.69064 
-0.258539 -0.864298 -5.71086 
1.99561 2.46502 -8.3046 
-0.0733417 0.363689 -6.37734 
-1.67614 -0.663893 -5.51646 
0.435063 -0.89399 -6.16304 
0.364735 -0.519578 -6.40453 
