ply
format ascii 1.0
comment VTK generated PLY File
obj_info vtkPolyData points and polygons: vtk4.0
element vertex 266
property float x
property float y
property float z
element face 0
property list uchar int vertex_indices
end_header
2.13655 -0.734558 -6.67147 
2.13846 -0.620276 -6.68663 
-1.79248 -1.17458 -3.90717 
-1.75078 -1.21873 -3.93989 
-1.70601 -1.19041 -3.98015 
-1.70353 -1.1898 -3.97529 
-1.67328 -1.13946 -4.00615 
2.14032 -0.704535 -6.67508 
2.14373 -0.652874 -6.68853 
2.16688 -0.679099 -6.69043 
-1.81017 -1.21173 -3.90525 
-1.81798 -1.11668 -3.89787 
0.299097 -0.258017 -5.10247 
-1.81016 -1.20949 -3.90608 
-1.79791 -1.12355 -3.91406 
0.388276 -0.101567 -5.32614 
-1.69149 -1.14268 -3.98686 
3.07329 1.90059 -7.47468 
3.02271 -0.829661 -7.19485 
0.440639 -0.191919 -5.13185 
-1.7389 -1.18891 -3.955 
3.04267 0.42347 -7.3368 
0.307342 -0.211922 -5.16585 
-1.75982 -1.17987 -3.93181 
3.05962 1.14174 -7.40116 
2.19429 -0.59249 -6.73251 
0.303334 -0.0307694 -5.26475 
-1.81379 -1.13038 -3.90152 
0.523934 -0.170856 -5.15716 
3.02259 -0.677638 -7.20915 
-1.82973 -1.23008 -3.87459 
-1.67169 -1.22753 -4.00203 
-1.66957 -1.24274 -3.99713 
0.294701 -0.27584 -5.09183 
0.401018 -0.243277 -5.12419 
0.518742 -0.226165 -5.11887 
0.442882 0.11964 -5.29793 
0.48536 -0.159509 -5.14409 
3.01901 -0.887511 -7.20079 
0.541123 -0.182101 -5.1319 
0.457767 -0.152685 -5.14538 
0.444066 -0.254292 -5.11516 
-1.8332 -1.21815 -3.87998 
-2.09621 1.36278 -4.52162 
0.0777232 1.49537 -5.15203 
0.538203 -0.211358 -5.12965 
2.10091 -0.577274 -6.67659 
0.236801 1.67921 -5.18071 
0.553247 -0.229439 -5.14404 
0.406083 1.95818 -5.70553 
0.369304 1.94061 -5.66842 
0.514997 0.0536984 -5.32239 
3.15603 1.32773 -7.42044 
0.501142 -0.229804 -5.11761 
0.449553 0.333772 -5.33341 
0.43766 -0.168063 -5.14211 
0.84801 2.04395 -6.08143 
0.434277 0.0350846 -5.24608 
-1.82029 -1.21498 -3.89426 
2.15873 -0.762514 -6.70055 
0.464737 -0.197628 -5.12186 
0.84467 2.057 -6.05905 
0.802968 1.65796 -5.56516 
3.00768 -1.40741 -7.15465 
0.375173 0.16767 -5.31816 
1.575 0.0255063 -5.94581 
-1.81402 -1.14619 -3.90002 
-1.10568 1.5528 -4.73116 
0.331792 1.94709 -5.65487 
2.28369 1.84241 -7.00607 
0.802645 1.65935 -5.56751 
0.485314 -0.232702 -5.11837 
0.551945 1.41154 -5.31227 
-0.201647 0.921468 -4.82333 
0.126097 0.673616 -5.08146 
2.07746 -0.745314 -6.64226 
-1.70688 -1.24788 -3.97203 
0.473061 0.133291 -5.30028 
2.09515 -0.773738 -6.64593 
3.05519 -0.860211 -7.16759 
0.485358 -0.207878 -5.11379 
-2.16465 0.950451 -4.48094 
0.0841051 1.51611 -5.13671 
0.158658 -0.35511 -5.08982 
-0.969022 0.964807 -4.7889 
2.2017 -0.750717 -6.70885 
0.724691 0.643041 -5.49366 
-1.35269 1.57394 -4.56513 
0.110674 -0.353231 -5.05634 
0.326222 1.94882 -5.66177 
0.291935 0.919573 -5.13252 
-0.296443 -0.099958 -4.93531 
-0.290958 -0.807331 -4.48401 
3.06468 -0.48946 -7.24469 
0.49054 -0.583186 -5.06729 
-0.9822 0.978505 -4.77813 
1.20425 0.826481 -5.76401 
-1.81425 -1.15133 -3.90258 
0.487056 0.347036 -5.35359 
2.67668 -1.45392 -6.93879 
0.475355 0.356406 -5.33111 
-1.71013 -1.13815 -3.9675 
-1.36287 0.991347 -4.50123 
0.567453 0.751416 -5.44065 
0.38907 0.378446 -5.34379 
0.322686 0.285485 -5.3234 
1.73245 0.242895 -6.50994 
2.67763 -0.0059949 -7.09576 
0.395338 0.31087 -5.33042 
3.04411 -0.858084 -7.20936 
0.409853 -0.0916762 -5.30163 
-1.34728 1.36481 -4.54452 
0.365711 0.0958143 -5.27487 
0.541944 -0.594657 -5.12261 
2.66905 -1.17878 -6.97343 
-0.519807 1.35917 -5.11198 
0.359713 0.118484 -5.29033 
-2.16029 1.31285 -4.4967 
0.261499 -0.604374 -4.93738 
2.68487 -1.36308 -6.96775 
-0.637034 -0.307577 -4.55953 
2.14064 0.0232752 -6.74483 
0.51892 -0.158459 -5.1609 
-0.621181 -0.262268 -4.58085 
0.530416 -0.578512 -5.11124 
-1.39917 0.0583178 -4.40301 
0.216771 -0.589843 -4.89787 
2.85046 -1.58045 -6.72806 
-1.69524 -1.25064 -3.97955 
1.85984 1.72236 -6.72415 
-1.35294 1.57372 -4.56425 
3.04207 -0.65602 -7.21817 
0.389622 0.306779 -5.32471 
2.70342 -1.58215 -6.86318 
2.2614 1.35276 -6.95239 
0.119829 0.0441511 -5.09166 
0.405856 1.68936 -5.35049 
-1.14746 -0.532469 -4.53561 
0.110684 -0.262119 -5.06667 
-2.21393 -0.834534 -4.26137 
0.787187 1.67174 -5.56028 
-1.15989 1.17436 -4.66451 
-0.397294 -0.551678 -4.4974 
2.70007 1.703 -7.26382 
-1.16888 0.46758 -4.60863 
0.813887 1.62973 -5.56627 
-1.0576 -0.577849 -4.58927 
0.194898 1.51893 -5.22231 
0.237229 -0.982108 -3.93683 
-1.35782 1.37263 -4.53157 
1.80735 0.97087 -6.62007 
-0.623368 -0.503043 -4.34504 
1.67954 2.1409 -6.64691 
-1.58394 0.134388 -4.28422 
0.424554 -0.0691053 -5.31169 
-0.436587 -0.533891 -4.46595 
0.22047 0.903529 -5.07579 
-1.26625 1.37763 -4.59826 
-0.220697 -0.139957 -4.98133 
0.269503 0.44161 -5.21762 
0.799785 -0.323607 -5.51695 
0.211567 0.0329044 -5.15093 
0.100288 1.52559 -5.11377 
-1.78769 -1.22974 -3.91926 
0.334025 0.943554 -5.16479 
0.553881 0.204772 -5.39297 
3.11582 -1.45123 -7.12013 
-0.165092 0.0963741 -5.04616 
2.67482 -1.20421 -6.97675 
0.829136 0.704949 -5.47296 
0.168609 -0.0498669 -5.11745 
1.30665 1.22155 -6.32749 
2.6844 1.5069 -7.22085 
-0.0487115 -0.658757 -4.7263 
0.529121 -0.2994 -5.23083 
-0.593904 1.68929 -5.0949 
0.223904 0.925678 -5.07228 
-0.96219 -1.18732 -4.50126 
1.58908 0.773531 -6.45542 
-1.06007 0.165893 -4.63955 
-1.57746 0.115437 -4.28569 
1.37553 0.992793 -6.34197 
-0.57993 -0.265649 -4.61704 
0.270153 -0.244834 -5.1021 
-1.57561 1.34074 -4.38777 
-1.43652 0.990883 -4.45345 
0.52212 0.231022 -5.38062 
0.0718502 -0.265419 -5.04032 
0.404506 0.180986 -5.32831 
1.15393 1.257 -5.71382 
-0.904518 0.0574789 -4.7517 
-1.5579 0.126843 -4.29457 
-0.488169 1.32642 -5.13063 
0.0929285 -0.267041 -5.05499 
-1.16657 1.11698 -4.6578 
0.872311 0.89794 -5.53122 
2.04045 2.08584 -6.873 
0.420819 0.617868 -5.33453 
2.68595 -1.56406 -6.85867 
2.29707 2.04958 -7.03425 
-0.222973 0.141511 -5.00189 
2.98555 -1.5671 -7.0782 
-1.1676 -0.190832 -4.54527 
-1.5707 1.38268 -4.38485 
-0.614833 -0.510648 -4.35069 
-1.63891 -1.00007 -4.15219 
-0.374899 -0.107614 -4.89101 
0.0807912 0.0429279 -5.06949 
0.371127 -0.272914 -5.12126 
0.46626 0.741495 -5.36219 
0.366432 0.577803 -5.30084 
2.6739 -1.3914 -6.94226 
-1.024 0.625562 -4.71898 
-1.08941 0.237055 -4.62769 
0.232384 0.945023 -5.08401 
3.09144 -1.46134 -7.10324 
-0.366436 1.69261 -5.24483 
-1.38854 -0.62202 -4.34352 
0.13977 0.930797 -5.02292 
0.556045 -0.156812 -5.21478 
-1.18014 0.612557 -4.60346 
0.479878 0.591806 -5.37367 
-0.203913 -0.257429 -4.9884 
-2.21926 -0.783546 -4.30795 
-0.985373 1.37229 -4.80508 
-0.0643275 -0.0114265 -5.10466 
1.01662 1.01841 -5.7391 
0.274073 1.55648 -5.27066 
2.56521 0.525422 -7.07343 
-1.58848 -0.359333 -4.23305 
0.394685 0.587911 -5.31934 
0.316384 -0.2262 -5.10948 
-0.994714 0.272243 -4.71621 
0.0813165 0.189135 -5.07391 
-0.628589 1.53119 -5.05736 
-0.252179 0.101394 -4.98842 
-1.57656 -0.356163 -4.24311 
0.164262 -0.267099 -5.0979 
2.18527 1.09066 -6.8762 
0.707194 -0.40565 -5.44746 
-0.660455 1.70347 -5.04698 
0.451605 0.560056 -5.06058 
-0.011733 -0.560485 -4.75588 
-2.14318 1.60184 -4.56045 
-0.506219 -0.529948 -4.42662 
-0.984038 1.37281 -4.80531 
-0.279973 -0.639959 -4.56845 
-0.476828 1.31296 -5.12274 
-0.503886 0.933884 -5.08446 
0.326167 -0.219245 -5.12167 
-1.10477 0.179804 -4.61572 
-1.17802 -1.02455 -4.47058 
0.202928 -0.276296 -5.12165 
-1.03109 0.0579719 -4.65275 
-1.52837 -0.353663 -4.27738 
0.578242 0.146682 -5.40139 
0.501142 -0.210411 -5.13973 
-0.070741 -0.152023 -5.08993 
0.179792 -0.602638 -4.8782 
0.0432683 -0.666484 -4.78168 
-1.49202 -1.03142 -4.24691 
0.139857 -0.240597 -5.07605 
-0.72975 1.79723 -4.99723 
1.03316 0.000738299 -5.82475 
0.325624 -0.219092 -5.12167 
0.485518 0.612961 -5.37784 
