ply
format ascii 1.0
comment VTK generated PLY File
obj_info vtkPolyData points and polygons: vtk4.0
element vertex 247
property float x
property float y
property float z
element face 0
property list uchar int vertex_indices
end_header
2.4736 -0.670467 -6.53015 
2.47629 -0.547244 -6.5542 
-1.79744 -1.22279 -3.93955 
0.869602 -1.36644 -3.94264 
-1.75467 -1.19687 -3.97701 
-1.72597 -1.14855 -4.00347 
2.47728 -0.634816 -6.53471 
-1.85695 -1.21683 -3.91661 
-1.86811 -1.12718 -3.90938 
0.403137 -0.121501 -5.12477 
-1.84839 -1.13566 -3.92457 
-1.79943 -1.17522 -3.95158 
0.240752 -0.236208 -4.94631 
-1.74429 -1.15188 -3.98554 
0.381363 -0.162791 -4.96606 
-1.74311 -1.1693 -3.98076 
0.235341 -0.254482 -4.93657 
0.267324 -0.0105014 -5.15938 
-1.86194 -1.13939 -3.90944 
3.22451 -1.58349 -6.63879 
-1.87698 -1.23608 -3.89089 
-1.71911 -1.24656 -3.99232 
0.478394 -0.149585 -4.94723 
-1.87771 -1.23712 -3.88886 
0.316892 0.126781 -5.15727 
2.43691 -0.692931 -6.49829 
0.452017 0.308817 -5.18388 
0.457181 -0.195118 -4.94884 
0.426634 -0.129098 -4.98226 
0.477969 -0.180562 -4.96316 
0.439671 -0.199091 -4.94715 
0.399238 -0.123071 -4.98242 
-1.87965 -1.22427 -3.89278 
0.385092 -0.225668 -4.95172 
0.494961 -0.196133 -4.9622 
0.336114 0.0896663 -5.10427 
0.405201 0.368813 -5.17948 
2.51907 -0.710119 -6.53915 
0.385265 0.0659472 -5.08125 
2.50108 -0.69866 -6.54984 
0.415289 -0.15583 -4.95658 
-1.86614 -1.221 -3.90466 
0.445277 -0.156343 -4.94743 
0.444956 0.385985 -5.19428 
0.211707 -0.224191 -4.96462 
0.445627 -0.18768 -4.95101 
0.430495 0.402324 -5.16632 
0.263503 -0.162288 -5.07252 
0.424491 -0.203189 -4.94993 
0.212466 -0.224109 -4.95931 
-0.0921759 0.95941 -4.98137 
-1.86332 -1.1566 -3.91135 
1.67503 0.11025 -5.73878 
0.0203321 0.97724 -4.87905 
0.322235 0.124599 -5.1209 
0.403526 -0.167924 -4.95618 
0.379295 -0.140498 -4.97638 
0.380382 -0.062639 -5.1698 
-0.464289 0.767201 -4.99787 
0.348387 0.20546 -5.16628 
-1.06488 0.91493 -4.75138 
0.0541651 -0.33866 -4.91533 
0.67392 0.971081 -5.25475 
0.338697 0.198195 -5.2002 
0.106523 -0.339761 -4.9441 
-2.1847 1.19625 -4.61084 
3.12286 0.139275 -6.96443 
2.40311 -0.681082 -6.49934 
-1.86215 -1.16146 -3.91215 
-1.22725 1.48283 -4.71267 
-1.3859 1.29543 -4.58526 
0.109566 0.929326 -4.92577 
0.430123 0.397219 -5.18738 
0.0519866 -0.247819 -4.92147 
0.496499 -0.567655 -4.94711 
1.95168 0.351451 -6.35024 
0.318463 0.146752 -5.14064 
-1.7643 -1.14843 -3.96994 
0.482536 -0.552202 -4.93836 
-1.46955 0.911313 -4.48887 
3.19115 -1.43245 -6.83604 
-1.07842 0.925924 -4.73002 
-1.47689 1.47913 -4.5592 
-0.035853 1.53499 -5.0039 
0.281428 0.313752 -5.1827 
3.18595 -1.44492 -6.85129 
0.111251 0.951257 -4.91986 
-1.05984 0.385211 -4.67843 
2.39842 -0.527189 -6.51597 
-0.141413 -0.12442 -4.95343 
0.684147 0.988139 -5.25565 
-1.11205 -0.598864 -4.53727 
0.779513 0.760606 -5.21776 
3.15405 -1.13922 -6.85227 
2.50169 -0.523452 -6.57478 
-0.610272 1.33715 -5.03744 
0.436009 -0.55922 -4.90322 
-1.4658 1.27618 -4.53694 
0.345822 0.341496 -5.17293 
0.373653 0.0492343 -5.07893 
0.522325 0.801879 -5.28075 
0.771269 -0.367465 -5.32102 
2.45689 0.142231 -6.60836 
3.16293 -1.16503 -6.85669 
-0.365492 -0.101799 -4.81955 
-1.66187 0.0709805 -4.28178 
0.18892 -0.58629 -4.77678 
0.452687 1.4634 -5.12333 
1.14884 1.37258 -5.56468 
-1.65701 0.0531053 -4.28746 
3.18706 -1.40588 -6.79723 
0.29386 -0.0764424 -5.18796 
2.43853 -0.519709 -6.52898 
3.17944 -1.33842 -6.845 
-1.86053 -1.16761 -3.91483 
-0.723558 -0.27484 -4.48463 
0.196872 -0.239685 -4.98369 
-0.516564 -0.551574 -4.37563 
0.325856 0.169631 -5.15147 
-0.996227 0.219375 -4.69411 
-1.01273 -1.18961 -4.43551 
-0.26331 -0.254844 -4.8703 
-0.740333 -0.320169 -4.46716 
0.344263 0.407548 -5.17044 
0.491417 -0.269008 -5.06398 
-1.07021 0.232685 -4.6678 
-0.973095 0.0276015 -4.69454 
-1.23527 1.07417 -4.6488 
-1.25403 0.413819 -4.57129 
-1.67826 -0.135512 -4.2526 
-0.753175 -0.510256 -4.24019 
-1.74693 -1.25634 -3.98445 
0.575045 -0.234753 -5.13231 
0.441309 -0.179069 -4.95144 
0.137827 -0.572559 -4.73945 
-1.83236 -1.23369 -3.92328 
-1.77165 -1.24329 -3.95853 
0.00999259 -0.252024 -4.89524 
0.187992 0.947821 -4.96695 
-0.327767 -0.251154 -4.84465 
0.12064 0.969799 -4.92664 
-0.678968 -0.276688 -4.51646 
-1.20468 -0.557647 -4.49633 
-0.0259994 1.54522 -4.97533 
0.0141717 -0.245002 -4.90327 
-1.20654 -0.558052 -4.49994 
-0.559168 -0.535157 -4.34697 
-1.47658 0.00606362 -4.38417 
-0.285887 -0.14104 -4.87177 
0.431386 0.63316 -5.22054 
0.433322 0.234183 -5.14427 
-1.37264 1.03664 -4.56148 
-1.47819 1.28362 -4.52671 
-1.59064 0.54578 -4.38308 
-1.27345 0.555701 -4.57622 
-1.6384 0.065186 -4.29359 
-1.68376 -1.01851 -4.15262 
0.552823 0.187704 -5.2392 
-0.604802 1.48153 -5.05684 
-1.36775 1.03553 -4.55648 
1.30335 -0.648937 -5.41613 
0.233365 0.973215 -4.9895 
0.0133727 0.0619107 -4.9309 
1.2263 0.924993 -5.5978 
0.152203 0.0532498 -5.00672 
0.0330111 -0.252952 -4.9147 
0.0545786 -0.0291461 -4.94321 
0.306964 0.611748 -5.15042 
-0.120181 -0.00305298 -4.98292 
0.365021 0.656415 -5.18568 
-1.1378 0.126263 -4.59291 
-1.54323 0.906731 -4.44832 
-1.27277 1.04781 -4.62899 
-1.09492 1.31277 -4.76568 
-0.249523 -0.569297 -4.5247 
0.409634 -0.271751 -4.97546 
0.713529 0.0444076 -5.32028 
0.715463 -0.0491315 -5.31207 
-0.464958 -0.30927 -4.7522 
0.547744 0.208357 -5.23867 
-1.11095 0.576455 -4.67013 
0.053022 0.246292 -4.95123 
-1.53766 -1.04642 -4.23178 
-1.69423 1.23593 -4.40316 
-1.10881 -0.117611 -4.59279 
-0.347406 -0.0218003 -4.83744 
0.159835 -0.0955219 -4.99802 
0.0809063 -0.224479 -4.93071 
0.366966 0.634685 -5.18732 
0.462354 -0.125933 -4.99325 
0.817905 0.0374233 -5.37787 
-0.566704 1.29658 -5.05244 
0.137665 0.881773 -4.9473 
0.123391 0.246642 -4.98517 
-0.108215 -0.55027 -4.61207 
-0.249439 -0.570143 -4.5241 
-1.16901 0.193365 -4.58222 
3.16984 -1.37158 -6.83428 
-0.576299 1.30897 -5.05852 
-2.17003 -0.399296 -4.44783 
-1.09438 1.31398 -4.7689 
0.715396 -0.0509097 -5.31469 
0.0209902 0.949974 -4.87615 
-1.17042 0.0689173 -4.57351 
-1.65212 -0.403122 -4.22688 
-1.19114 0.0809192 -4.57056 
-1.22179 -1.03531 -4.42743 
0.715089 -0.370977 -5.28619 
-0.454867 -0.630482 -4.39622 
-0.0465425 -0.653747 -4.63205 
0.667815 -0.279915 -5.26978 
0.315136 -0.251024 -4.96177 
-1.18033 0.775572 -4.65192 
0.469884 0.387493 -5.2165 
-1.64147 -0.399645 -4.239 
0.491326 0.611135 -5.25369 
-1.19393 0.767311 -4.64248 
0.436931 0.655816 -5.22622 
-1.59321 -0.39576 -4.2674 
0.0991231 -0.585963 -4.7219 
0.662587 0.193837 -5.30405 
0.0747198 0.881064 -4.91229 
1.10146 0.060667 -5.67516 
-0.259533 0.0985276 -4.90374 
0.256532 0.567676 -5.1174 
-1.07508 0.944688 -4.73137 
-1.6924 1.27695 -4.40103 
-0.630003 -0.532836 -4.30938 
-0.812037 0.688088 -4.84569 
-0.316004 -9.19768e-05 -4.84782 
0.785324 0.231993 -5.35528 
-0.214234 -0.308012 -4.89714 
-1.24443 0.721727 -4.60605 
0.506698 -0.258475 -5.06273 
0.364479 -0.0464963 -5.15748 
-1.1051 0.0221979 -4.6049 
-1.67887 0.228743 -4.29373 
-1.68183 1.47816 -4.43768 
0.480051 -0.211936 -4.97553 
-0.831029 1.32131 -4.92052 
-0.390927 -0.63523 -4.43663 
-0.290188 0.117685 -4.89345 
-1.06811 -0.628575 -4.55228 
-1.18233 0.137134 -4.57053 
1.25301 -0.383046 -5.72136 
1.62007 -0.669558 -5.55085 
-0.491822 -0.628288 -4.38389 
