ply
format ascii 1.0
comment VTK generated PLY File
obj_info vtkPolyData points and polygons: vtk4.0
element vertex 248
property float x
property float y
property float z
element face 0
property list uchar int vertex_indices
end_header
-1.93577 -0.98005 -3.97606 
-1.88689 -1.01569 -3.982 
2.53194 -0.322301 -5.95993 
2.45398 -0.389227 -5.92065 
-1.81205 -0.940699 -4.02224 
-1.95453 -0.923837 -3.9589 
-1.94115 -1.00614 -3.96615 
-1.93657 -0.933627 -3.9744 
0.0918765 -0.0256449 -4.58666 
2.50236 -0.321515 -5.92677 
-1.93279 -0.9296 -3.96584 
2.56329 -0.225417 -5.98942 
0.0858816 -0.0436027 -4.59253 
-1.83291 -0.963012 -4.01003 
0.222522 0.0485819 -4.57679 
-1.83338 -0.945808 -4.01338 
-1.83195 -0.945532 -4.01063 
2.54127 -0.387241 -5.97287 
-1.9494 -0.935796 -3.9596 
-1.81028 -1.03579 -4.02314 
0.300848 0.0685172 -4.5941 
-1.81049 -1.03699 -4.02565 
-1.80906 -1.02314 -4.02296 
-1.96542 -1.03029 -3.95036 
0.309506 0.0304944 -4.55878 
0.288863 0.0159349 -4.55516 
2.4424 -0.408348 -5.90355 
0.272607 0.0122932 -4.55515 
-1.96138 -1.02896 -3.93867 
0.265595 0.0808254 -4.58997 
-1.96694 -1.01785 -3.95121 
0.31064 0.588989 -4.78583 
0.272357 0.569981 -4.78269 
-1.96924 -1.0183 -3.95519 
0.22379 -0.0128003 -4.57197 
2.53604 -0.225042 -5.95606 
0.241222 0.272524 -4.68297 
0.326127 0.0159657 -4.57147 
0.266977 0.276412 -4.6864 
0.0681352 -0.0157503 -4.60003 
0.278377 0.0228581 -4.55513 
-1.1426 1.06416 -4.57025 
2.51475 -0.411685 -5.94874 
0.340111 0.506004 -4.77423 
1.23226 1.69018 -5.55426 
2.53026 -0.421742 -5.93627 
-1.9542 -1.01496 -3.96149 
0.259135 0.00789579 -4.55749 
2.21727 1.7885 -5.9778 
2.32018 -0.801701 -5.85614 
0.251491 0.0540336 -4.5688 
0.329274 -0.343748 -4.56081 
-1.95045 -0.953557 -3.96282 
-1.84404 -1.03987 -4.00608 
-1.55463 1.59412 -4.43722 
-0.0296329 -0.126354 -4.61148 
0.220584 0.547238 -4.77765 
0.189852 0.331252 -4.74158 
1.55363 0.354504 -5.18299 
-1.92383 -1.02731 -3.9797 
-1.46499 1.41998 -4.45406 
0.277245 0.0522553 -4.55334 
0.189099 0.352469 -4.75502 
-1.30389 1.60494 -4.53625 
0.0125919 -0.0384813 -4.63342 
-0.690151 -0.276771 -4.26055 
-1.30927 1.61022 -4.55188 
-1.94927 -0.95768 -3.96361 
0.315084 -0.329527 -4.55615 
-1.96383 -0.878357 -4.03035 
-1.5555 1.59395 -4.4378 
0.132309 0.00181936 -4.60295 
-1.54598 1.04404 -4.37571 
1.93546 0.627003 -5.77999 
0.216715 0.544936 -4.77757 
0.296074 0.621047 -4.78807 
2.51856 -0.23359 -5.96898 
0.581772 -0.04688 -4.87116 
0.13498 0.505045 -4.76602 
0.26714 -0.338161 -4.53082 
0.339987 -0.0507149 -4.66884 
-1.19366 -0.396282 -4.42107 
0.158886 0.51238 -4.76904 
-1.15528 1.07179 -4.53989 
-0.13325 0.110588 -4.58346 
1.74061 1.1679 -5.73076 
-0.126134 -0.0436542 -4.57861 
-0.69342 1.49071 -4.7673 
-0.378615 -0.0491835 -4.59631 
0.19744 0.375153 -4.7667 
0.0222391 -0.369225 -4.43545 
-1.54548 1.3986 -4.42219 
2.47127 0.434383 -5.97949 
2.41187 -0.329852 -5.90447 
-1.14767 0.405358 -4.50738 
0.414931 0.420151 -4.82342 
-0.688368 1.63227 -4.7847 
-1.83428 -1.04417 -4.0161 
-0.345169 0.294394 -4.62809 
-0.806207 -0.0858075 -4.30678 
1.47121 1.37108 -5.63866 
0.299461 0.829684 -4.81111 
-0.71896 -0.338295 -4.13036 
0.278907 0.0899363 -4.59041 
-0.675975 -0.352564 -4.15031 
-0.90859 -0.319141 -4.05532 
-0.0255234 0.260012 -4.63789 
-0.842524 0.332073 -4.19812 
2.66555 1.01684 -6.09261 
0.212043 0.455869 -4.78059 
2.00741 1.40546 -5.85526 
0.313571 0.00088972 -4.57474 
0.234559 0.828559 -4.78368 
-0.480739 0.0959707 -4.55151 
0.252138 0.886068 -5.13698 
-1.33035 0.572408 -4.43638 
0.0929541 0.0103638 -4.59672 
1.09142 1.16628 -5.04909 
0.685714 -0.0486715 -4.91112 
2.40548 -0.347127 -5.90852 
0.0245962 0.111965 -4.64881 
-1.61694 -0.836117 -4.21435 
0.279188 0.00810739 -4.55751 
-1.28407 -0.358349 -4.39529 
0.390951 0.997594 -4.84792 
-0.852023 -0.0855497 -4.28772 
-1.61716 -0.837291 -4.21669 
-0.812077 1.64386 -4.73956 
0.162498 -0.039274 -4.59662 
0.0139121 0.259159 -4.64798 
-0.676539 -0.353104 -4.14872 
0.354227 0.479552 -4.8164 
-0.651686 1.45356 -4.7787 
-0.868176 -0.129749 -4.27064 
-1.553 0.17444 -4.30951 
0.0248538 0.406852 -4.66528 
-1.31456 1.20992 -4.49262 
-1.31453 -0.0407997 -4.39475 
-1.66403 0.68866 -4.30725 
2.60183 1.88952 -6.13937 
-1.19177 0.735243 -4.51352 
0.583506 -0.137022 -4.87128 
-0.542043 0.0626785 -4.53993 
1.11175 -0.388094 -4.87672 
-0.104949 -0.354725 -4.38445 
-1.94685 -1.03433 -3.95268 
0.693948 0.105744 -4.92546 
-1.3469 1.24073 -4.4867 
-0.237471 0.0626014 -4.66405 
-1.71311 0.226239 -4.24806 
-0.272761 -0.341524 -4.31774 
-0.102001 -0.04391 -4.59015 
-1.34977 0.709065 -4.44058 
-1.61974 1.03791 -4.35519 
-1.67026 -0.214207 -4.23432 
-1.21865 0.299992 -4.45164 
-0.0847952 0.438758 -4.60412 
2.57098 -0.422042 -5.97464 
-1.56246 1.40573 -4.40927 
-0.212685 -0.439541 -4.33233 
-0.0505436 0.269238 -4.62368 
0.360537 0.811334 -4.83835 
-1.34933 0.708722 -4.43996 
-0.899162 -0.325851 -4.05764 
1.16063 -0.132652 -5.23551 
-0.241646 -0.426137 -4.32107 
0.149257 0.00147256 -4.611 
2.42521 -0.283546 -5.90968 
-0.404178 0.310535 -4.60479 
-1.32265 0.87023 -4.46193 
-1.35195 1.18459 -4.48341 
-0.413288 -0.363317 -4.25479 
-1.45098 1.17087 -4.43726 
-0.787068 -0.337181 -4.09966 
2.33108 0.449629 -5.93926 
2.6484 1.02686 -6.10065 
-1.29833 -0.880085 -4.33499 
-1.25098 0.244178 -4.44308 
-0.241621 -0.426981 -4.31946 
1.38357 1.60145 -5.62767 
-0.751631 -0.354711 -4.11388 
0.689548 0.261612 -4.92943 
2.43948 -0.426797 -5.92263 
0.532495 0.408338 -4.87504 
1.93456 0.459265 -5.76426 
2.54955 -0.289098 -5.97972 
2.44126 -0.231996 -5.92674 
0.276907 -0.0239083 -4.57388 
-0.61661 -0.427128 -4.16455 
0.538699 0.261817 -4.86915 
1.15208 -0.403518 -4.91481 
-1.26379 0.309322 -4.44186 
-0.560787 0.0831135 -4.52863 
-0.899154 -0.326154 -4.05603 
-0.0678017 -0.370393 -4.39572 
-0.552871 -0.42977 -4.19266 
-0.437569 0.29228 -4.59068 
1.34927 1.57146 -5.60299 
-1.1734 1.44846 -4.57932 
-0.895982 0.85356 -4.63245 
0.304845 0.852023 -4.80998 
-1.44129 0.55146 -4.39123 
0.288522 -0.335002 -4.54343 
-1.40491 -0.338536 -4.31243 
-1.57633 1.40953 -4.40922 
1.0021 0.299538 -5.188 
0.164433 0.821657 -4.75607 
0.690502 0.260852 -4.93214 
-0.373511 0.290202 -4.616 
-1.76721 1.38827 -4.32051 
-0.397834 0.487355 -4.56053 
-0.413285 -0.363954 -4.25413 
-1.66956 -0.835966 -4.18614 
-0.549701 1.48157 -4.82078 
-1.13866 0.464271 -4.50508 
2.38111 0.996533 -5.97813 
0.380567 0.522973 -4.77374 
-1.73037 -0.223448 -4.20881 
1.47206 0.620318 -5.58753 
0.413245 0.770234 -4.85906 
-0.433073 0.193931 -4.56994 
2.86094 1.62672 -6.2291 
-1.4161 -0.218442 -4.33757 
0.643398 0.17461 -4.90911 
0.149249 0.983649 -4.74491 
-1.75917 1.58539 -4.35518 
-1.94404 -0.918205 -3.95971 
1.95557 0.61043 -5.77615 
0.371604 0.828085 -4.83422 
1.70477 -0.403874 -5.12407 
-1.75445 0.382415 -4.25469 
1.10444 0.282575 -5.23575 
0.929039 0.300799 -5.16126 
0.580654 0.44909 -4.88267 
2.74409 1.61549 -6.18752 
0.123054 0.759458 -4.73324 
0.428766 0.782502 -4.85585 
-0.749267 -0.220613 -4.26297 
-1.43583 1.23713 -4.44436 
1.47996 -0.420228 -5.03745 
-1.76408 0.0252911 -4.20544 
-0.392257 0.198418 -4.58963 
-1.21198 0.396739 -4.47193 
-0.377765 -0.347888 -4.26899 
-0.912509 1.46732 -4.68977 
1.23654 -0.134242 -5.25485 
-1.42633 -0.198471 -4.32337 
-1.28342 0.402626 -4.44489 
