ply
format ascii 1.0
comment VTK generated PLY File
obj_info vtkPolyData points and polygons: vtk4.0
element vertex 307
property float x
property float y
property float z
element face 0
property list uchar int vertex_indices
end_header
0.00652807 -1.07256 -3.23907 
-2.30809 -1.1057 -4.83639 
-2.25462 -1.07385 -4.84758 
2.23164 -0.279924 -4.7872 
2.16521 -0.281321 -4.79845 
2.16412 -0.339166 -4.77514 
2.16975 -0.22066 -4.79416 
-0.0423838 -0.0554884 -4.57825 
-2.32338 -1.14023 -4.84317 
-2.16201 -1.05898 -4.84731 
2.13854 -0.271171 -4.62759 
-2.31759 -1.05438 -4.84664 
-2.31562 -1.05974 -4.84769 
2.26126 -0.290993 -4.96049 
2.228 -0.221888 -4.80806 
-2.34293 -1.04863 -4.84522 
-2.18863 -1.06533 -4.84623 
-0.0377231 -0.0385038 -4.56251 
-2.1877 -1.0827 -4.84133 
2.25594 -0.194098 -4.7935 
2.22422 -0.221165 -4.78346 
0.161043 0.0533853 -4.47822 
0.0747731 -1.04948 -3.17462 
0.0857218 0.0371117 -4.50062 
-2.33418 -1.06021 -4.83849 
0.162924 0.0180836 -4.45972 
-2.15552 -1.16122 -4.83904 
0.199762 0.564845 -4.6446 
0.20623 0.485379 -4.64594 
-2.15572 -1.14882 -4.8417 
0.0651705 -1.08208 -3.2395 
-2.35283 -1.1663 -4.83245 
2.16205 -0.358578 -4.78536 
0.185111 0.589253 -4.63638 
0.142745 0.00396502 -4.45654 
2.24155 -0.196033 -4.79901 
0.163799 0.546346 -4.65831 
-2.35705 -1.15179 -4.84045 
2.24252 -0.1931 -4.7884 
0.185753 0.590784 -4.63392 
2.26699 -0.344872 -4.78635 
2.15573 -0.186869 -4.80819 
0.167429 -0.0281419 -4.46085 
0.226949 0.482592 -4.6484 
0.411342 -1.07631 -3.34971 
0.103295 0.0737934 -4.50593 
0.1805 0.00422113 -4.45775 
-2.20929 -1.06122 -4.83124 
0.119625 0.256199 -4.58754 
-0.880301 -0.305669 -4.61286 
-1.28886 1.09128 -5.0187 
0.23743 -0.0351132 -4.5248 
-0.20526 -0.0518649 -4.64402 
-0.282939 1.11504 -4.57811 
-0.18494 1.08045 -4.56612 
1.13239 1.56206 -4.93541 
2.21854 -0.357235 -4.79155 
0.183294 -0.349304 -4.44628 
0.308758 0.37883 -4.63809 
0.169172 -0.0108231 -4.45896 
-0.185907 1.10092 -4.56032 
-1.66218 1.48224 -5.03437 
0.113825 0.522662 -4.64565 
0.228662 0.566829 -4.65206 
-0.148933 -0.139235 -4.63765 
-0.105261 -0.0510838 -4.64071 
0.304015 0.399055 -4.64088 
-2.33534 -1.08162 -4.8438 
0.210761 -0.0615149 -4.53748 
-2.00473 0.210169 -4.98176 
-1.05147 0.328792 -4.58549 
-0.18942 0.929176 -4.56712 
0.245505 0.460036 -4.65505 
-1.76755 1.09163 -5.00521 
2.1557 -0.185876 -4.81151 
1.42227 1.07492 -4.91717 
-1.76866 1.09272 -5.012 
-2.01371 0.229117 -4.98204 
0.0648873 -1.04819 -3.25483 
-1.63199 -1.12434 -4.17768 
0.192038 0.799662 -4.66727 
0.527504 -0.0553952 -4.61997 
0.0822216 0.335089 -4.66849 
0.0629391 0.0864963 -4.57176 
-1.76034 1.668 -5.04105 
0.470196 0.247271 -4.63192 
-0.193339 0.955994 -4.59208 
0.031195 -0.0510378 -4.5299 
0.169198 -0.335731 -4.44852 
0.120026 -0.345917 -4.4507 
0.417165 0.0971747 -4.6289 
-2.2741 1.67003 -5.05187 
-0.704089 -0.834939 -3.75177 
-2.33404 -1.08628 -4.84522 
-0.989894 -0.107116 -4.67862 
0.948637 1.07603 -4.54292 
2.22214 -0.204776 -4.80205 
-0.784631 1.50171 -5.00579 
0.524765 -0.141533 -4.61521 
-0.495579 -0.0645335 -4.76682 
-0.776523 1.64225 -5.01235 
-1.75571 1.46439 -5.03626 
0.419623 0.0923152 -4.62655 
-0.144834 -0.0528467 -4.64119 
-0.784702 1.50101 -5.00464 
-0.254816 0.388899 -4.66167 
-0.902598 0.457515 -4.64307 
2.13414 -0.304469 -4.80141 
0.567936 -0.0551902 -4.61791 
-1.77571 1.47163 -5.02667 
-2.03792 0.013359 -4.98064 
-1.31115 1.10346 -5.00478 
-0.1303 -0.382735 -4.46254 
0.393842 1.11322 -4.55613 
-0.169411 0.256169 -4.64869 
2.34585 0.885075 -4.84872 
1.34658 1.25312 -4.91576 
0.460243 -0.313027 -4.50349 
2.19217 0.382103 -4.83714 
-0.103037 0.245635 -4.65142 
-0.633745 1.07482 -4.62553 
-0.45745 0.283238 -4.77326 
0.0649838 0.778322 -4.66842 
-0.201032 0.15832 -4.64994 
-1.46853 1.66229 -5.03664 
0.0821465 1.54385 -4.57009 
-0.147993 -0.0589987 -4.64045 
0.281616 0.959212 -4.65916 
-1.50721 -0.956392 -4.91297 
2.14728 -0.377547 -4.78516 
0.468545 -0.141138 -4.62352 
-1.52871 -0.249881 -4.95699 
0.504067 0.952227 -4.55283 
-0.520789 0.301076 -4.77619 
-0.185595 -0.37251 -4.46465 
-0.14561 0.160379 -4.65168 
-0.937448 -0.24662 -4.60972 
-1.79157 1.47775 -5.03576 
-0.489752 0.281592 -4.77797 
-0.0967204 0.0917194 -4.64362 
-1.52065 0.585466 -4.99287 
-1.0421 -0.107313 -4.68078 
-1.54012 0.730345 -4.99919 
-1.50978 -0.88908 -4.92725 
-1.76059 0.408323 -4.98478 
-2.3121 -0.987981 -4.86705 
0.936511 -0.372884 -4.41743 
-1.06319 -0.154206 -4.67531 
-1.47867 -0.40045 -4.9548 
-0.739539 1.45984 -4.99513 
-1.15175 -0.356005 -4.49986 
1.23828 1.4441 -4.92988 
1.81039 1.25637 -4.89763 
-1.65045 0.566108 -4.99344 
2.07787 0.397157 -4.84969 
-1.47885 -0.39878 -4.95305 
0.294459 0.416699 -4.64472 
-1.77742 -0.506778 -4.94385 
0.124395 0.820505 -4.66177 
0.0925345 0.357367 -4.70349 
-0.488288 0.279165 -4.77768 
-1.88576 -0.926846 -4.93005 
-0.0489 1.12201 -4.56993 
-1.93832 -0.253106 -4.95139 
-0.33856 0.186561 -4.76927 
-1.63567 -0.252799 -4.95266 
0.37164 1.12793 -4.55442 
0.319577 0.749473 -4.65697 
0.420126 0.385258 -4.63605 
-0.266592 1.1016 -4.57562 
-0.207087 0.424638 -4.64275 
0.426092 0.243607 -4.63408 
-1.91679 0.718841 -5.00545 
0.0210982 -0.0108959 -4.56604 
-0.88777 -0.385135 -4.49324 
-0.441963 -0.362738 -4.47767 
0.39906 -0.733973 -3.42527 
-0.723981 -0.0413755 -4.75308 
-2.33351 -1.17076 -4.83306 
0.418447 0.388362 -4.63782 
-1.50581 0.89891 -5.00204 
0.166813 0.945583 -4.67124 
0.423014 -0.0596455 -4.6203 
2.43809 0.412328 -4.82418 
-1.43219 0.364176 -4.98135 
-1.01282 -0.371717 -4.48861 
-0.556129 0.18183 -4.76108 
-0.378888 -0.460315 -4.46524 
-1.04954 0.314092 -4.58464 
-1.14192 -0.362737 -4.4983 
0.358883 -0.0401735 -4.61986 
-0.223905 -0.0574858 -4.64658 
2.16716 -0.201832 -4.80091 
0.265118 0.499439 -4.64302 
-0.144191 0.241756 -4.64986 
-0.410238 -0.448915 -4.46696 
-0.208382 0.422847 -4.64168 
-0.409743 -0.447726 -4.46603 
0.305721 0.737199 -4.66207 
0.142239 -0.342039 -4.45106 
1.76825 0.548165 -4.86879 
1.10383 -0.130918 -4.70121 
-0.113791 1.09292 -4.55961 
1.27425 1.4727 -4.95285 
-2.0013 -0.260257 -4.96457 
0.305814 0.736953 -4.66145 
-1.15079 0.720926 -4.98146 
-0.653196 -0.843299 -3.70408 
-0.474206 0.167474 -4.75995 
0.199784 -0.0448718 -4.53449 
-1.78864 -0.565768 -4.94544 
-1.35784 0.188757 -4.96695 
-0.911055 1.66302 -5.01963 
1.34839 0.567303 -4.88984 
2.15958 -0.373252 -4.79515 
-1.73406 -0.00886711 -4.96696 
0.957872 0.277794 -4.73265 
-1.29849 0.466961 -4.97601 
0.49797 1.1048 -4.53724 
2.11716 0.876828 -4.8588 
0.668777 1.45594 -4.47363 
0.53502 0.425121 -4.62082 
-0.82129 -0.460758 -4.48021 
-0.115572 1.11627 -4.55953 
-1.52398 1.28608 -5.01516 
2.16218 -0.201809 -4.80055 
-0.11214 -0.776431 -3.44442 
-0.443196 -0.460667 -4.46887 
-1.51232 -0.0632041 -4.96162 
0.196567 0.8215 -4.66238 
-1.36866 0.0883683 -4.96192 
-1.43319 0.238316 -4.97445 
-0.225031 -0.386536 -4.46492 
-1.32103 1.48866 -5.02185 
-1.01718 0.864667 -4.98208 
-1.46782 0.405516 -4.98555 
0.237415 -0.0656454 -4.53786 
-1.64968 -0.232254 -4.94202 
-0.9732 -0.0977114 -4.67848 
0.497112 1.08625 -4.5437 
0.055954 0.796011 -4.6678 
-0.60126 1.37044 -4.99255 
1.74869 0.413131 -4.8616 
-1.95481 -0.930241 -4.93031 
0.133896 0.169546 -4.66275 
0.984079 0.258187 -4.72447 
-2.02838 0.391018 -4.994 
-1.31981 1.49053 -5.02684 
0.181273 0.079735 -4.48455 
-0.972691 -0.38964 -4.48818 
-0.595308 -0.389221 -4.47696 
0.463642 0.422078 -4.62156 
-0.909724 -0.284769 -4.58031 
-1.64681 1.21795 -5.01146 
-1.64941 -0.233291 -4.94289 
-0.74957 -0.461197 -4.47818 
-1.02378 1.49152 -5.02068 
0.370838 0.793108 -4.65409 
2.22867 1.37214 -4.88234 
-0.304591 1.1103 -4.57598 
-0.0936785 -0.855816 -3.44068 
0.52784 0.158237 -4.62691 
2.49537 1.39731 -4.86919 
-2.01336 -0.264614 -4.95565 
-0.692151 0.0693924 -4.77364 
-0.19671 1.11923 -4.56225 
0.977155 -0.386048 -4.43454 
1.65079 1.07483 -4.90458 
-1.43396 0.238402 -4.9737 
-0.456111 0.128971 -4.77158 
0.27671 0.755315 -4.66623 
1.85783 1.45309 -4.91734 
0.818569 -0.0690541 -4.7231 
-1.44489 0.30714 -4.96871 
0.821953 0.277938 -4.73584 
0.0133274 0.736835 -4.66936 
0.361207 0.790801 -4.65348 
-0.0862638 1.12582 -4.55798 
0.790042 0.278605 -4.73209 
-2.00398 1.67415 -5.04667 
-0.893925 0.897484 -4.98921 
-0.0176797 -0.0363573 -4.55704 
0.377173 0.988443 -4.66401 
-2.02287 1.46718 -5.02728 
0.36067 -0.733938 -3.42783 
0.58174 0.392968 -4.63525 
-1.38472 0.398654 -4.98025 
0.411827 -0.234653 -4.5565 
-1.73811 0.19965 -4.98375 
2.01111 0.103711 -4.83383 
-2.05493 0.00395377 -4.96848 
1.64627 0.0489208 -4.8413 
-0.0611811 0.57737 -4.57622 
0.26327 0.798604 -4.66271 
-0.556414 -0.371566 -4.47449 
0.947022 1.06446 -4.57543 
-2.03461 -0.0763472 -4.97311 
0.500306 0.424954 -4.61799 
-1.92952 -0.00857715 -4.96658 
-1.48667 -0.898657 -4.92599 
0.851662 0.108417 -4.65967 
-1.45715 0.344503 -4.97354 
-1.48923 1.24735 -5.01479 
-0.13422 0.426646 -4.64044 
0.573614 1.1884 -4.56741 
1.72551 -0.289219 -4.83825 
-1.63288 1.28966 -5.02268 
