ply
format ascii 1.0
comment VTK generated PLY File
obj_info vtkPolyData points and polygons: vtk4.0
element vertex 337
property float x
property float y
property float z
element face 0
property list uchar int vertex_indices
end_header
-2.36669 -1.03822 -5.15097 
-0.307702 -1.02809 -3.13696 
1.96781 -0.266523 -4.27192 
-2.42945 -1.07414 -5.16778 
-2.37121 -1.10917 -5.14381 
1.96843 -0.266979 -4.27429 
-0.420623 -1.02978 -3.16335 
1.93854 -0.271206 -4.27239 
1.98341 -0.212414 -4.26171 
1.95848 -0.213405 -4.28711 
1.9973 -0.267429 -4.26873 
-2.43429 -1.10185 -5.16037 
-2.27865 -1.02263 -5.1407 
-2.42954 -1.01948 -5.16209 
2.00386 -0.154379 -4.2827 
2.03194 -0.127677 -4.27751 
-2.45149 -1.01191 -5.1581 
-0.346137 -1.03494 -3.15817 
-2.29949 -1.0265 -5.13216 
-0.066971 0.0954964 -4.33922 
-0.00759096 0.119504 -4.36074 
-2.448 -1.02538 -5.15869 
-2.27358 -1.12561 -5.13436 
2.01637 -0.267744 -4.26719 
-0.0678436 0.0613853 -4.31216 
-0.00522885 0.604168 -4.48714 
0.00205409 0.524178 -4.50234 
-0.062569 0.015875 -4.31895 
2.01196 -0.126859 -4.26209 
2.0101 -0.128598 -4.26675 
0.0375056 0.124344 -4.42747 
0.471205 -0.258816 -4.32183 
0.0227658 0.521063 -4.49784 
-0.288341 -1.03195 -3.11836 
2.03708 -0.276136 -4.25815 
1.93779 -0.289227 -4.2815 
-0.0212843 0.626578 -4.49373 
-0.0378838 0.588264 -4.51537 
1.93001 -0.120303 -4.29407 
-2.46893 -1.11679 -5.16473 
-0.0509343 0.0477916 -4.30978 
-0.0882354 0.0473528 -4.32635 
2.01191 -0.298567 -4.2617 
-2.32581 -1.02591 -5.12856 
0.0422503 0.502445 -4.49019 
-0.439586 -1.034 -3.19735 
0.166502 -0.0204315 -4.4394 
-0.0432201 0.205313 -4.51013 
1.22785 1.11791 -4.52473 
-0.184073 -0.00723196 -4.41177 
0.0242476 0.605822 -4.48437 
-0.0272299 0.113198 -4.35373 
-0.0470177 -0.301553 -4.30427 
-0.844216 -0.537721 -4.38053 
0.743863 1.47885 -4.64258 
-1.77703 1.51157 -5.20579 
-0.105428 0.0431816 -4.32818 
0.101822 0.421307 -4.46076 
-0.0171977 0.0632511 -4.32476 
2.43361 -0.136587 4.39411 
-1.87638 1.69888 -5.23693 
1.99124 -0.288314 -4.27221 
-0.402248 1.13216 -4.47262 
1.99096 -0.288842 -4.26961 
1.9079 -0.27948 -4.29093 
-0.0890639 0.566753 -4.52797 
-0.400236 1.11195 -4.47762 
1.53962 0.613521 -4.41807 
-0.224341 -0.00332872 -4.45037 
0.233407 -0.262091 -4.31933 
-1.88022 1.12266 -5.20485 
-1.40415 1.12132 -5.11537 
-0.061438 0.0321212 -4.31705 
0.316079 -0.00619915 -4.40718 
-0.0605218 -0.288243 -4.30856 
-1.8817 1.12192 -5.20185 
1.92268 -0.307974 -4.27875 
-0.00722973 -0.0161979 -4.38418 
0.20861 0.143466 -4.43464 
-1.15808 -0.0686304 -4.74056 
0.35523 -0.0057791 -4.39882 
-0.685239 0.340949 -4.74798 
-0.827215 1.10383 -4.60506 
-1.88765 1.49899 -5.21511 
-0.739771 1.51493 -4.56684 
0.259633 -0.0940342 -4.41648 
-0.0112472 0.836383 -4.50633 
1.84243 -0.633131 -4.29976 
-0.445621 0.427524 -4.59071 
-1.63867 -0.211057 -5.11399 
-1.47187 0.785133 -5.12062 
-0.337052 -0.00895493 -4.55097 
0.0886855 0.459584 -4.47081 
-0.916941 1.53357 -5.01559 
1.9133 -0.219873 -4.28914 
0.703255 1.11285 -4.24673 
0.426018 -0.184962 -4.33173 
-0.658973 -0.0215604 -4.73912 
-0.0751634 0.838034 -4.51802 
1.37921 1.0989 -4.47191 
2.11149 0.934378 -4.28912 
-0.0168831 0.0628422 -4.32746 
-0.113761 0.376557 -4.52844 
-1.58554 1.69274 -5.17336 
-1.13561 -0.332708 -4.55631 
1.99658 -0.137277 -4.28325 
-0.443275 0.132534 -4.58135 
-0.886883 0.00202467 -4.77443 
1.17466 0.899665 -4.51824 
-0.687412 0.0965311 -4.7644 
1.90838 -0.23609 -4.29117 
0.362913 0.140959 -4.40141 
-0.504965 -0.739949 -3.3893 
-0.291098 0.134213 -4.54651 
0.361569 1.15877 -4.30851 
1.96864 0.411168 -4.31865 
0.724035 1.48771 -4.64377 
-1.13737 -0.0149975 -12.0022 
-1.76339 0.599476 -5.17451 
0.35685 0.291716 -4.40589 
1.1531 1.29363 -4.53813 
-0.350479 -0.336816 -4.37654 
-1.43205 1.13653 -5.11871 
-1.74546 -0.214468 -5.13175 
-0.267341 1.15682 -4.46861 
-2.16006 -0.872714 -5.20472 
-0.10551 0.0657381 -4.32374 
-0.655029 0.320727 -4.74914 
-0.404685 -0.327662 -4.39265 
-0.623215 -0.404582 -4.43421 
-1.08768 -0.34545 -4.54537 
-2.37628 1.69733 -5.33566 
0.194094 -0.184842 -4.3708 
-0.339426 0.198865 -4.55558 
1.85638 0.453002 -4.34215 
0.892091 -0.0754066 -4.38331 
0.682907 -0.318691 -4.13975 
-1.65453 0.763873 -5.1555 
0.0488906 0.817264 -4.49345 
-0.641867 0.208737 -4.73014 
-1.23217 -0.116578 -4.75885 
1.92251 -0.249517 -4.28085 
0.163965 1.14568 -4.35686 
-1.11803 -0.207365 -4.66852 
0.0736093 0.995307 -4.48364 
1.59914 1.29847 -4.43228 
2.20572 0.470746 -4.2631 
0.0719448 0.794736 -4.49327 
1.90709 -0.235828 -4.29431 
1.9642 0.438289 -4.30786 
1.92242 -0.175464 -4.28486 
-1.14281 -0.0596097 -4.7408 
-1.88368 -0.468689 -5.15 
-1.48443 0.126371 -5.08934 
-1.21066 -0.0692698 -4.7589 
-1.87227 0.441984 -5.18832 
0.684469 0.323895 -4.447 
0.0996063 0.77465 -4.47886 
0.00458315 0.407917 -4.43983 
-0.331602 1.12504 -4.45841 
-2.05105 -0.218494 -5.20409 
0.249961 0.463994 -4.41147 
-0.691826 -0.416064 -4.45136 
-0.6784 0.227367 -4.73781 
-2.11984 0.261893 -5.23097 
1.3164 1.0985 -4.49269 
0.82732 -0.0746601 -4.40305 
-2.02519 0.749743 -5.23251 
1.85634 0.45316 -4.34181 
-2.06342 -0.400884 -5.20404 
-0.0948045 0.0147613 -4.33027 
-1.58514 0.441424 -5.14127 
0.214422 -0.0113029 -4.4301 
-1.89552 -0.527036 -5.15849 
-0.0783238 0.858074 -4.5171 
-1.8468 0.234421 -5.18102 
0.684471 0.323442 -4.44321 
-0.00736404 0.858151 -4.5051 
-1.21124 -0.333435 -4.5629 
-2.02508 0.749447 -5.23139 
-1.02086 0.932916 -5.02332 
-2.38704 1.866 -5.35531 
-0.331712 0.466369 -4.55067 
-0.653828 -0.320068 -4.45233 
-0.72211 0.222043 -4.74565 
-0.486622 -0.817788 -3.38178 
-1.99064 -0.886147 -5.16474 
0.751122 0.326666 -4.4325 
0.0576031 0.834181 -4.49095 
-0.868786 -0.0850406 -4.7805 
-0.413353 -0.0138486 -4.5695 
-1.27323 0.755442 -5.06556 
-0.135438 0.318327 -4.49145 
-0.619443 0.169462 -4.73073 
1.09804 0.357893 -4.1435 
-0.217974 0.0643603 -4.45224 
1.89083 0.924426 -4.33735 
1.71999 -0.151039 -4.34711 
-0.0184944 0.000968947 -4.37891 
-0.0364056 0.983432 -4.52228 
-0.0305683 0.140261 -4.3573 
1.06818 1.30564 -4.56185 
1.44573 1.11777 -4.46525 
-1.76105 -0.195641 -5.12508 
2.09711 0.944739 -4.3018 
-0.0463985 0.123245 -4.34672 
1.55917 0.601341 -4.41973 
-1.89535 -0.216828 -5.16235 
-0.655252 -0.417038 -4.44213 
0.410572 -0.173927 -4.33562 
0.15155 0.00778121 -4.44151 
-0.871042 1.49142 -4.99519 
-0.0864996 -0.295009 -4.32226 
-1.43856 1.51937 -5.13082 
1.00173 -0.334999 -4.06089 
-2.33705 -0.529725 -5.24173 
-2.13148 0.422313 -5.2394 
-0.227416 0.00765095 -4.44827 
0.588499 0.32676 -4.46826 
-1.84586 0.0237085 -5.17013 
-0.184842 0.773544 -4.54322 
0.0594407 0.542393 -4.51308 
-0.750185 -0.759878 -3.44216 
0.77653 0.307638 -4.42188 
-1.16911 -0.353188 -4.55461 
0.357052 1.12465 -4.30602 
-2.13587 -0.0450624 -5.22101 
1.36692 1.08829 -4.48536 
-2.1323 0.422651 -5.24019 
1.51767 -0.223821 -4.39674 
2.02155 -0.176519 -4.2746 
-0.767795 -0.330385 -4.47737 
-1.89904 -0.860611 -5.15605 
-0.803849 -0.346858 -4.47775 
0.0577389 0.835705 -4.48866 
0.723342 -0.330313 -4.13675 
-0.954062 -0.420012 -4.50681 
-0.00237502 0.0540506 -4.33858 
-0.442712 -0.341118 -4.3959 
-1.9568 1.69885 -5.24686 
-0.411935 1.15107 -4.47718 
0.3152 0.203772 -4.4052 
-2.32261 -1.03183 -5.12499 
-0.348472 -0.0236512 -4.56161 
2.01962 -0.250122 -4.2642 
1.15517 0.617234 -4.51317 
1.4712 0.787753 -4.44731 
-0.442856 -0.342925 -4.3975 
0.708189 -0.333056 -4.1345 
1.38524 0.318372 -4.44692 
-1.7476 1.31959 -5.19149 
1.29711 1.01025 -4.49035 
-0.271835 0.613234 -4.46074 
0.263027 1.12029 -4.32942 
0.38135 0.61564 -4.31887 
-1.76805 1.25197 -5.19807 
1.9366 -0.134737 -4.28903 
-0.34815 0.0488668 -4.56108 
-2.03777 0.0249785 -5.20422 
-0.717984 0.0693245 -4.74111 
1.80468 -0.116576 -4.31922 
0.982742 -0.329719 -4.06706 
1.53996 0.46722 -4.41427 
-0.270028 -1.03855 -3.11269 
-0.638477 1.27737 -4.64146 
-0.789067 0.322047 -4.77946 
-0.927741 1.57642 -5.01649 
0.857887 -0.404727 -4.09257 
-1.23802 0.390851 -4.67809 
0.0173042 0.0811879 -4.3623 
-0.719987 0.320832 -4.75205 
-2.11648 -0.229808 -5.20258 
0.341683 1.22208 -4.33737 
-2.13716 1.49736 -5.27553 
-2.38771 -0.398793 -5.27043 
-0.0974915 0.394103 -4.54068 
0.253548 0.132702 -4.42613 
0.496609 -0.405817 -4.17875 
0.179899 1.13827 -4.35623 
1.49078 0.084685 -4.41077 
1.29991 0.939321 -4.49008 
-1.60103 -0.245194 -5.0983 
-1.12333 -0.18158 -4.67988 
1.44109 0.105267 -4.41853 
-0.106219 0.273488 -4.47639 
0.366632 -0.441451 -3.23156 
0.987751 0.0527768 -4.36754 
-1.1949 0.396039 -4.67811 
-1.76479 1.25017 -5.1908 
-1.69327 0.428094 -5.15321 
0.619225 0.326012 -4.45877 
-0.615998 0.124037 -4.72961 
0.126775 1.14833 -4.35505 
0.0808377 -0.00524408 -4.38521 
-1.04291 0.0364479 -4.82604 
1.69324 0.788108 -4.39553 
1.05485 -0.0755211 -4.23016 
1.90959 -0.149904 -4.29884 
-2.15877 0.0365947 -5.22261 
0.966979 -0.314959 -4.07103 
0.319781 0.467104 -4.40305 
1.72142 -0.0963323 -4.34928 
-0.75204 -0.822172 -3.4446 
-1.56106 0.343013 -5.11027 
-0.221896 0.612763 -4.47719 
-0.186188 -0.413311 -4.33948 
-0.50613 -0.699985 -3.3904 
-1.15636 -0.0936952 -4.73542 
0.019792 -0.0199694 -4.37317 
-0.840874 -0.33019 -4.4806 
0.791655 -0.404527 -4.10974 
-0.35147 1.05359 -4.48378 
1.30039 0.988649 -4.4906 
-0.105068 0.656959 -4.50304 
-1.88215 -0.850027 -5.14089 
-0.348846 0.431366 -4.55957 
2.12298 0.946798 -4.28532 
-2.28534 -0.398592 -5.2357 
0.262228 0.13196 -4.42686 
1.72895 -0.995662 -4.23109 
1.6778 0.622205 -4.38743 
1.11342 0.654308 -4.51712 
0.811701 0.118059 -4.41099 
-0.115282 -0.320984 -4.32115 
-0.175546 -0.735648 -3.31379 
-0.0359003 0.0473802 -4.3138 
-0.415456 1.0532 -4.49898 
0.91126 -0.328502 -4.07926 
1.87744 0.595967 -4.33704 
0.203335 -0.496019 -4.17898 
-0.0568667 0.526051 -4.49983 
2.19731 0.486518 -4.25725 
-0.986905 -0.407319 -4.51578 
-0.29014 0.424856 -4.55206 
0.753295 -0.405264 -4.12467 
1.38267 1.01692 -4.47657 
1.94711 0.914684 -4.32283 
