ply
format ascii 1.0
comment VTK generated PLY File
obj_info vtkPolyData points and polygons: vtk4.0
element vertex 236
property float x
property float y
property float z
element face 0
property list uchar int vertex_indices
end_header
1.51887 -0.0841796 -3.24398 
1.49208 -0.130455 -3.25313 
1.52667 -0.129993 -3.22651 
1.50826 -0.130615 -3.24865 
1.54782 -0.0804028 -3.2419 
-0.142684 0.145075 -3.70716 
1.56622 -0.0572542 -3.2238 
1.5497 -0.176204 -3.21353 
-0.12278 0.565705 -3.80637 
-0.196381 0.0542677 -3.68335 
-0.20221 0.0942382 -3.67409 
1.55146 -0.0578268 -3.22376 
-0.0925149 0.148452 -3.75379 
-0.188141 0.0817109 -3.67275 
1.49085 -0.194809 -3.24904 
1.56933 -0.183977 -3.21007 
-0.145895 0.554894 -3.83579 
-0.0980663 0.568087 -3.8039 
0.0213293 0.0257639 -3.72667 
-0.0370537 0.425202 -3.76815 
1.48481 -0.0514961 -3.25847 
-0.160691 0.138462 -3.70419 
-0.13866 0.563926 -3.81174 
1.5472 -0.202107 -3.21404 
-0.396836 -0.0433085 -3.9352 
-0.216328 0.0802293 -3.67506 
0.927305 1.00582 -3.57972 
0.535749 1.31903 -3.77381 
0.103621 0.040469 -3.98033 
-0.0437204 0.441679 -3.77615 
0.927601 1.00891 -3.58796 
-0.656464 0.128918 -4.15574 
-0.187055 0.534908 -3.84514 
1.53351 -0.194612 -3.23046 
-0.477158 0.0276836 -3.97317 
-1.8461 0.081439 -4.86938 
-1.28471 0.726661 -4.62611 
-0.416145 0.30035 -3.94423 
-0.313079 0.037998 -3.82372 
-0.121135 0.111864 -3.70251 
-0.526938 -0.63054 -2.89861 
0.0554871 0.167951 -3.7245 
-0.15558 0.0943003 -3.67332 
-1.05865 -0.0127173 -4.25055 
-0.194043 -0.209565 -3.67522 
-1.06958 -0.020471 -4.24871 
-1.01061 -0.193256 -4.15566 
-0.0252423 0.725236 -3.77464 
1.17716 0.574401 -3.43953 
-1.42233 0.581445 -4.68827 
-0.608124 0.189218 -4.13995 
-0.472531 1.02485 -3.872 
0.885168 0.820728 -3.59476 
-0.628102 0.223342 -4.14445 
1.41867 -0.488988 -3.29002 
-0.18473 -0.221426 -3.67172 
0.057215 0.163261 -3.72543 
-1.63862 1.0266 -4.79452 
1.43036 0.436704 -3.31451 
1.53932 -0.064856 -3.23858 
1.46794 -0.149954 -3.2672 
-0.126944 0.764924 -3.82355 
-0.607597 0.188897 -4.13924 
-0.0817094 0.0992047 -3.74605 
0.996427 0.40237 -3.52317 
-0.227058 -0.218217 -3.69384 
-1.2507 -0.246201 -4.17297 
1.48094 -0.0966612 -3.26066 
-0.6365 0.319777 -4.16513 
1.62891 0.844684 -3.21345 
-0.0584619 0.905426 -3.78837 
-0.396279 0.025199 -3.93418 
-5.65072 -0.0925706 -10.2548 
0.863499 -0.73884 -3.09667 
-0.452238 0.442737 -3.95055 
1.47234 -0.136544 -3.26252 
-1.13397 -0.0635703 -4.288 
-5.60924 0.0901021 -10.275 
-0.207784 0.369023 -3.8725 
0.415011 -0.232473 -3.38877 
0.144109 0.296045 -3.68458 
0.185837 0.171106 -3.66256 
-0.178426 0.147463 -3.7008 
0.799088 1.16932 -3.64799 
-1.25576 1.03563 -4.62102 
-1.76897 -0.152134 -4.82242 
-2.01328 -0.427173 -4.91958 
1.48177 -0.212015 -3.25827 
-0.612578 0.322915 -4.14245 
0.0852434 0.445231 -3.69782 
-1.53209 0.566244 -4.74303 
-1.24212 0.562867 -4.60545 
1.05465 0.321537 -3.49712 
-5.62156 1.01289 -10.2992 
-1.59904 0.245943 -4.76223 
-0.179608 0.770079 -3.84544 
-1.5158 -0.147531 -4.70549 
-0.432219 -0.252526 -3.7894 
-0.228436 0.749318 -3.86778 
0.867798 1.15896 -3.61499 
-0.319735 0.0466716 -3.8291 
-0.0768759 0.751346 -3.79958 
-1.0487 -0.142496 -4.18634 
-0.0699563 0.765537 -3.79576 
-0.261231 0.499024 -3.84684 
-1.44138 0.710612 -4.70362 
-1.3649 0.895735 -4.66318 
-0.539568 -0.244972 -3.83491 
1.63003 0.967886 -3.21494 
-1.1224 0.701885 -4.54467 
-0.682954 -0.240269 -3.91886 
0.498519 -0.384744 -3.2663 
1.12372 0.723445 -3.47732 
-0.14137 0.0874156 -3.68551 
-5.64294 0.358736 -10.2472 
1.46942 -0.186424 -3.26703 
-0.604708 0.150472 -4.137 
1.4878 -0.208891 -3.2568 
-0.474848 1.03948 -3.86843 
1.46936 -0.0690391 -3.27737 
-1.84298 0.410821 -4.87462 
-0.182641 0.786509 -3.8456 
1.38028 0.190043 -3.33253 
-1.11523 -0.0214197 -4.28203 
-0.391713 1.0479 -3.83716 
-0.174472 0.0813239 -3.67272 
-1.75264 0.69799 -4.84248 
-0.0614742 0.0375551 -3.71057 
0.826651 -0.224695 -3.18259 
0.985471 0.854239 -3.54502 
-0.213873 -0.214872 -3.68897 
1.0396 0.98156 -3.52551 
-4.59317 1.49048 -8.92165 
-0.426102 0.957313 -3.8701 
-1.70229 1.02167 -4.82017 
-1.59784 0.0590287 -4.7525 
-0.139618 0.082895 -3.69179 
-1.5208 1.19804 -4.7464 
0.384646 0.327326 -3.67678 
-0.604753 0.149987 -4.13715 
1.50013 0.829707 -3.27833 
-0.415518 0.0414019 -3.94221 
-0.0221219 0.693321 -3.76742 
0.999011 0.990599 -3.54424 
-0.252776 0.902015 -3.8793 
-1.14745 -0.254322 -4.11591 
0.516319 0.326771 -3.60878 
-1.64051 -0.149975 -4.75781 
-1.81594 -0.1578 -4.84553 
-1.62392 0.427343 -4.77379 
0.227009 -0.116755 -3.60239 
0.537546 0.311427 -3.60364 
-0.054758 0.546785 -3.80809 
-1.05214 -0.119631 -4.19915 
-5.57664 0.812099 -10.25 
1.38805 -0.0496001 -3.31188 
1.10264 1.00612 -3.49413 
-0.776142 -0.249567 -3.9552 
-0.350136 1.04243 -3.86727 
1.13769 0.121733 -3.44555 
-0.269341 0.713569 -3.88965 
-0.684729 -0.324837 -3.90848 
1.11206 1.10163 -3.49402 
-0.0828946 0.409394 -3.79487 
-1.52705 -0.129348 -4.68845 
-1.04568 -0.166816 -4.15858 
0.123165 0.0470871 -3.68878 
-0.748301 0.322291 -4.21506 
-0.132173 0.070187 -3.684 
0.744045 -0.019839 -3.38746 
0.180156 0.573872 -3.58511 
1.13794 0.12174 -3.44497 
-0.69285 0.321046 -4.17687 
1.05746 0.97813 -3.51565 
0.870078 0.578239 -3.59702 
1.44625 0.559023 -3.30542 
-0.412937 0.935208 -3.86732 
-1.8714 0.0707418 -4.86687 
0.566639 0.147714 -3.58665 
0.141227 0.213705 -3.68217 
1.28787 0.580948 -3.38701 
0.460615 0.0330604 -3.63316 
1.17846 0.448432 -3.43921 
1.6376 0.854752 -3.20808 
-0.164547 0.49902 -3.83064 
0.153603 1.01574 -3.58177 
0.588572 -0.304586 -3.3014 
0.70894 0.0917241 -3.5143 
-0.31142 0.573248 -3.84362 
0.502864 -0.305666 -3.34032 
0.709929 0.0896368 -3.51299 
-5.62168 0.358081 -10.3262 
-5.64755 0.0617816 -10.2629 
1.30045 0.722164 -3.38854 
-0.283537 -0.311282 -3.72166 
0.456142 0.663886 -3.56559 
1.16318 -0.141615 -3.43788 
-0.896368 -0.329092 -4.00896 
0.0123528 -0.389156 -3.51795 
1.55942 -0.0965496 -3.22798 
1.2926 0.706511 -3.38867 
0.133301 1.01303 -3.59033 
-1.14158 0.335246 -4.20124 
-0.00855178 -0.353037 -2.69414 
0.409036 0.32658 -3.6608 
0.644416 -0.227486 -3.27091 
0.599883 -0.239619 -3.29591 
1.08516 0.853581 -3.4967 
-0.259194 -0.497587 -2.7797 
-0.208369 0.618014 -3.87545 
-5.64447 0.0871821 -10.1901 
1.21671 0.228289 -3.41295 
-0.411967 1.05563 -3.83703 
-0.198999 0.140253 -3.70399 
-0.311219 0.573117 -3.84368 
-0.127548 0.205097 -3.83137 
0.602898 -0.239037 -3.29629 
1.17835 0.448407 -3.43841 
1.38129 0.121238 -3.32986 
0.373227 -0.0162539 -3.68024 
1.20986 0.839011 -3.43785 
0.244758 -0.187024 -3.54959 
0.514385 0.326576 -3.6081 
0.972736 0.964877 -3.55505 
1.57346 1.01054 -3.24431 
-1.9119 -0.42942 -4.88641 
0.69672 0.717429 -3.68384 
-0.894919 -0.261773 -4.01387 
-1.81222 -0.421782 -4.83109 
0.0520367 1.0451 -3.63605 
-5.54998 0.813448 -10.2246 
-0.465551 -0.579831 -2.87299 
-5.69403 1.01371 -10.3106 
0.41367 0.191763 -3.59811 
0.568021 0.147785 -3.58465 
0.809694 -0.210985 -3.18392 
