ply
format ascii 1.0
comment VTK generated PLY File
obj_info vtkPolyData points and polygons: vtk4.0
element vertex 414
property float x
property float y
property float z
element face 0
property list uchar int vertex_indices
end_header
2.10985 -0.250713 -4.20018 
2.04372 -0.324157 -4.2358 
-19.9908 10.8545 -41.1611 
1.99122 -0.238511 -4.00488 
-21.2817 0.224934 -42.6169 
2.01536 -0.242612 -4.07059 
-21.1567 0.519801 -42.3785 
-20.4052 -1.25401 -41.5957 
-21.3939 -1.2569 -42.672 
-20.4711 -1.2417 -41.7268 
-21.3789 -1.27567 -42.6433 
-21.2831 0.380185 -42.4589 
-21.3736 -0.186925 -42.6713 
-0.154746 0.168829 -5.74636 
-21.3268 -0.17398 -42.5798 
2.11608 -0.177263 -4.21172 
-14.7082 4.88236 -34.6664 
-22.2641 -1.30778 -43.751 
-22.2532 1.61864 -43.8348 
-22.2177 1.18175 -43.7392 
-20.3486 9.39777 -41.652 
-22.334 7.33317 -44.0563 
2.14221 -0.151769 -4.17909 
-21.3375 0.0730526 -42.5627 
-12.259 7.90967 -32.5727 
-0.109513 0.256065 -5.98301 
-20.2741 -0.579777 -41.3499 
-21.2881 -0.575767 -42.496 
-19.9942 10.7422 -41.3672 
-22.3107 9.80427 -44.019 
-22.3019 11.6094 -44.839 
-20.3951 0.465838 -41.5908 
-19.3194 10.6621 -40.1132 
2.13693 -0.142563 -4.18069 
-11.9977 6.73897 -32.034 
-21.4846 1.59786 -42.9429 
-0.248687 0.160298 -5.7946 
-21.3964 7.17692 -42.8735 
-11.9844 6.34253 -31.9964 
-2.43278 2.99543 -9.08274 
-21.7558 1.76277 -43.162 
-22.1824 9.06024 -43.7626 
-22.1229 -0.861491 -43.4803 
-12.0231 6.21078 -32.0753 
-22.4292 10.3653 -44.3632 
-22.3333 10.3041 -44.1773 
2.11833 -0.143262 -4.19363 
-22.4484 7.80079 -44.2509 
-22.1061 0.741649 -43.5252 
2.03854 -0.350414 -4.25227 
-0.259013 0.0923123 -5.73619 
-22.1389 2.75106 -43.6489 
-22.2676 0.48458 -43.8083 
-20.4767 7.43896 -41.8876 
-22.2855 0.0997328 -43.844 
-21.1211 11.174 -42.505 
-20.456 -0.195755 -41.6982 
-0.125328 0.117378 -5.73169 
-14.0567 4.78508 -33.9664 
2.13689 -0.331971 -4.16253 
-12.5342 2.39103 -32.3981 
-20.5483 0.124038 -41.9027 
-21.0516 11.1041 -42.5685 
-13.0085 5.57531 -32.8679 
-21.1338 14.9462 -42.8674 
-21.1495 -0.324006 -41.956 
-21.4375 0.530847 -42.6672 
-22.302 -0.547376 -43.8384 
-22.2613 2.34653 -43.8726 
-13.2432 2.02189 -32.7771 
-19.863 0.304257 -40.7212 
-2.0611 2.18045 -8.64268 
-23.7511 6.90057 -44.5309 
-20.9692 -2.97431 -41.6373 
-20.3658 9.04332 -41.6978 
-21.0609 7.06854 -42.6899 
-20.848 -1.43197 -42.0393 
-25.8524 12.6375 -47.583 
-0.12774 0.178665 -5.82142 
-0.18313 0.157955 -5.74489 
-13.2179 2.63128 -32.7504 
-25.664 11.2034 -47.2351 
-0.238156 0.0713944 -5.71788 
-13.1541 0.187915 -32.6324 
-0.11482 0.0172276 -5.72673 
-21.4575 3.77981 -42.3899 
-12.4472 1.91229 -32.7444 
-0.231384 0.427322 -5.98913 
-20.0247 -3.78628 -40.0815 
-19.2761 11.6 -40.1973 
-13.1102 1.40905 -32.5704 
-20.9438 -3.03243 -41.5847 
-24.8573 4.16344 -46.1452 
-13.2888 0.807169 -32.991 
-13.0458 3.14654 -32.5812 
-0.0597705 0.174112 -5.79537 
-22.7662 2.96355 -44.2356 
-13.057 3.14636 -32.5927 
-20.7899 -3.58373 -40.9093 
-0.182831 0.156648 -5.74544 
-18.8603 13.7159 -39.6098 
-21.0235 11.825 -41.9664 
-20.8654 11.2389 -42.5741 
-25.8534 11.6207 -47.7531 
0.401371 -0.32221 -5.36363 
-20.6827 10.6894 -42.5586 
-19.5944 0.0511914 -40.4343 
-13.7272 3.69349 -33.5168 
-19.123 -3.93711 -38.9523 
-14.4779 3.74177 -34.3766 
-12.4222 7.49165 -32.6479 
-20.455 7.05718 -41.8305 
-19.3565 -3.98515 -39.4391 
-22.4118 -3.18561 -43.0224 
-13.3101 -1.0328 -32.9662 
-0.0435231 0.817284 -5.88186 
-0.0305474 0.698537 -5.87013 
-23.7272 15.1826 -45.2993 
-22.5928 11.5576 -44.4856 
-18.8582 3.61215 -39.5043 
2.10612 -0.358408 -4.1776 
-20.9607 -2.86367 -41.6271 
-23.3645 6.9018 -44.5883 
-0.234991 -0.392684 -5.70135 
-21.0331 7.14045 -41.8437 
2.04068 -0.135199 -4.27349 
-1.03713 1.52754 -6.76332 
-14.602 4.79935 -34.6726 
-0.706511 0.29383 -6.77188 
-25.4597 10.8934 -47.0783 
-22.5388 2.79244 -45.1724 
-22.9212 15.4083 -44.9218 
-24.5644 7.70471 -46.1822 
-20.48 0.367871 -41.2327 
-0.270674 0.323742 -6.05076 
-22.115 2.64362 -43.8805 
-12.3984 6.93064 -32.5667 
-2.01029 0.0355587 -8.50246 
-19.6571 -1.4493 -40.3234 
-1.26754 -0.360949 -7.10287 
-0.180136 0.251156 -5.84415 
-20.2764 2.22244 -41.4006 
2.13665 -0.261777 -4.1714 
0.0978248 -0.0151356 -5.68904 
-12.6793 2.32785 -33.3852 
2.12494 -0.132038 -4.19177 
-0.751417 0.47751 -6.82483 
-0.247998 -0.375586 -5.72682 
-21.0697 3.62833 -41.9734 
-0.943107 2.0704 -6.59431 
0.0536067 1.05624 -5.7914 
-18.4057 0.192717 -38.7026 
1.34203 0.653574 -5.00718 
-0.188942 0.090583 -5.69902 
-12.4761 -0.567503 -32.4771 
-23.2749 -2.95425 -43.935 
-1.30593 -0.363373 -7.03985 
-24.0054 1.00252 -45.2947 
2.01035 -0.281151 -4.28306 
-23.412 -2.97535 -44.2106 
-0.249222 0.0549701 -5.73734 
-22.4862 9.27115 -44.0658 
-22.5893 0.654395 -44.1333 
-2.05005 1.62775 -8.59664 
1.44389 0.551633 -4.89156 
2.10238 -0.152332 -4.2106 
0.260411 0.00393481 -5.55437 
-13.0415 -1.47657 -32.7613 
-0.465375 0.411844 -6.29665 
-22.3349 -1.57429 -43.6742 
-18.3584 -0.484343 -38.5781 
-0.496895 0.273856 -6.34353 
-2.03152 2.46508 -8.64077 
-22.464 0.650137 -43.8897 
-0.210868 0.172062 -5.75136 
-1.73986 0.886239 -8.25122 
-21.8472 -1.3958 -43.2238 
-0.158959 0.76897 -5.97907 
-18.4416 2.99597 -39.0126 
-20.734 11.6471 -41.7293 
-0.157037 0.0728567 -5.71507 
-14.5647 4.64432 -34.3291 
-18.9896 11.7468 -39.7714 
-1.34067 -0.0770945 -7.2321 
-1.35647 -0.321649 -7.06207 
0.918016 -0.0839103 -5.09242 
-26.657 12.756 -48.1995 
-20.3132 12.4451 -41.1344 
-23.6626 1.75651 -44.6793 
-20.2343 12.3876 -40.9485 
-25.483 11.99 -47.1346 
-19.8752 1.38087 -40.9059 
0.364162 -0.325037 -5.29279 
-22.3559 11.4403 -44.5434 
-1.44524 -0.160218 -7.34455 
-21.4265 11.1371 -43.1068 
1.51651 0.428632 -4.82398 
-0.289335 -0.389872 -5.76827 
-1.44499 -0.159857 -7.34607 
-14.3785 4.50562 -34.2344 
1.00501 0.456834 -4.602 
-11.9731 9.98942 -31.9116 
0.528606 -0.403299 -4.93544 
-22.79 7.23142 -44.6596 
-18.8661 -1.69953 -39.2086 
2.01716 -0.159895 -4.2976 
-23.6193 15.1415 -45.3295 
-0.887109 2.02357 -6.49225 
2.01472 -0.334817 -4.28737 
-2.37051 0.622608 -8.91522 
-21.6393 -3.40006 -41.9346 
-12.8938 2.65796 -32.6528 
-18.6678 -1.18195 -39.2308 
-2.26933 -0.313359 -8.75467 
2.02719 -0.373634 -4.26558 
-21.1722 12.0889 -42.252 
-0.00373376 1.11975 -5.84935 
-2.65262 -0.778616 -9.13713 
-27.244 12.219 -49.2256 
-0.149316 0.0518276 -5.69859 
-2.26732 -0.313016 -8.7497 
0.151856 0.192712 -5.66936 
-23.9585 7.0965 -45.1738 
1.91237 0.229143 -4.4177 
-12.9731 3.51421 -32.6788 
-14.7062 -1.05307 -34.4012 
-1.35787 -0.0896946 -7.2306 
-19.688 4.06631 -40.4189 
-14.5555 4.66252 -34.6769 
0.304252 -0.00562876 -5.51058 
-0.576444 1.50966 -6.21979 
-0.762796 1.7462 -6.60442 
-1.48435 0.479257 -7.17005 
-19.89 2.73213 -40.7848 
-21.7009 -3.43059 -42.6638 
-20.7599 10.5507 -42.4488 
-0.0461805 1.1158 -5.90184 
-24.796 7.47796 -46.2361 
-1.76714 1.10045 -8.30138 
0.714139 0.438024 -5.32565 
0.243336 1.53615 -5.38879 
-2.36668 2.1949 -8.96292 
-0.0126318 1.10146 -5.86853 
-2.09438 0.0899358 -8.60281 
-18.9208 3.0141 -39.3302 
0.157801 0.38841 -5.66291 
-0.498203 -0.0220098 -6.33608 
-1.49903 1.6217 -8.04198 
-24.6085 4.74625 -45.5487 
-23.4028 3.8924 -44.3711 
0.0229459 0.782811 -5.8531 
0.232803 0.0177614 -5.5743 
-0.210768 1.10175 -6.06365 
-12.3128 3.56229 -31.8002 
-0.507683 1.42943 -6.17844 
-22.2192 15.3001 -44.2608 
-14.198 4.64197 -33.9355 
-15.7179 -1.73272 -35.5206 
-26.6819 11.8714 -48.6083 
0.153839 0.576775 -5.67831 
-25.9006 11.8222 -47.6469 
-12.8013 9.64146 -32.7137 
-0.132839 0.0624592 -5.69988 
-24.1864 2.54688 -45.5394 
-18.2624 2.29249 -38.7534 
0.749797 0.2495 -5.26191 
1.91659 -0.13116 -4.39007 
-12.5714 -1.2436 -32.3665 
-22.6268 9.83205 -44.2491 
-0.748038 0.322008 -6.81117 
-15.7083 0.85815 -35.5792 
0.596839 -0.6289 -4.71026 
-16.7844 -1.92337 -37.0282 
-0.017747 0.51357 -5.82691 
0.134036 0.227442 -5.69463 
-25.884 12.1242 -47.608 
-19.5803 2.84542 -40.4102 
-12.3454 3.54073 -31.9623 
-0.151018 1.15686 -5.99754 
-0.532185 1.54193 -6.1698 
0.350186 -0.33855 -5.28481 
-1.15738 0.0574202 -7.25995 
0.346712 -0.231868 -5.38284 
-21.8332 1.49733 -43.3054 
-14.8013 0.200662 -34.6617 
-0.0781539 0.260228 -5.94576 
-0.170779 0.125996 -5.71814 
-0.419782 0.830499 -6.08211 
1.83689 -0.172944 -4.47536 
0.590677 -0.640941 -4.70149 
-1.65806 1.39944 -8.1814 
-26.1983 12.7974 -47.623 
-1.35143 -0.283418 -7.10809 
0.0970371 -0.272456 -5.56995 
0.0858403 -0.041045 -5.62842 
-0.240573 0.161456 -5.772 
-18.6373 3.95543 -39.1081 
-16.7846 0.194334 -36.7682 
-13.692 0.818699 -33.267 
-1.02388 1.57374 -6.79628 
-0.721475 -0.0212166 -6.80078 
-0.241563 1.33688 -6.09659 
2.026 -0.3024 -4.26906 
-15.7163 -0.440041 -35.5415 
0.615937 0.4426 -5.42508 
-13.8352 4.38498 -33.5701 
-0.232741 0.228966 -5.89569 
1.03372 -0.386186 -4.40959 
0.0880369 0.95113 -5.75645 
0.515358 0.161923 -5.50763 
0.2747 0.816876 -5.37023 
-2.22665 1.09427 -8.78025 
-2.13284 2.47042 -8.72847 
-0.0325486 0.00341737 -5.71123 
0.237187 1.49133 -5.39098 
-0.590798 1.79524 -6.30498 
-14.6077 3.17889 -34.5445 
-2.14972 1.62621 -8.70547 
1.01724 0.0795397 -4.99849 
-0.364032 -0.534386 -5.85996 
-0.124014 0.145435 -5.74373 
-2.00661 0.343663 -8.52063 
-17.0862 5.55922 -37.5537 
-24.955 3.33089 -45.9566 
-0.435373 0.636032 -6.25657 
-21.7382 1.46082 -43.1453 
-0.705263 -0.140342 -6.78561 
0.839707 0.251329 -5.19422 
1.61419 0.127045 -4.70902 
0.825229 -0.411894 -4.616 
-15.8082 2.15783 -35.8456 
-21.4504 3.40601 -42.4563 
1.04353 -1.15007 -4.25755 
-13.6768 2.50645 -33.3489 
-14.8446 4.81837 -34.7105 
-14.6011 1.9927 -34.5794 
-14.5875 5.07117 -34.6938 
1.01608 -1.13917 -4.33133 
-0.121572 0.635837 -5.90425 
0.00543854 0.485182 -5.81564 
-19.2133 10.7671 -39.9057 
-0.263125 1.04698 -6.12074 
-1.33085 -0.261978 -7.13665 
-0.79273 0.44827 -6.86477 
-22.6997 9.90084 -44.3983 
-1.18574 -0.46439 -6.71281 
-1.54521 2.39077 -8.09611 
0.25848 0.626809 -5.53963 
1.3946 0.668854 -4.95276 
-1.43862 2.6824 -8.01327 
-1.27364 -0.562242 -6.78111 
0.130153 0.901425 -5.67249 
-1.5014 2.16442 -8.0528 
-1.18632 -0.573869 -6.70692 
0.621453 0.234667 -5.27126 
1.91496 0.126551 -4.41944 
-13.7015 4.30735 -33.5023 
-21.6639 10.8342 -43.5526 
-1.90659 1.11341 -8.44629 
0.757239 -0.411016 -4.70124 
-22.3496 -1.57807 -43.5848 
-16.8483 -1.89097 -36.7067 
0.775396 0.439083 -5.24568 
-1.35021 -0.246837 -7.12635 
-0.183165 0.198446 -5.76216 
1.71245 0.286684 -4.61641 
1.8477 0.158013 -4.47855 
1.0111 -0.36718 -4.42321 
2.03577 -0.124851 -4.27686 
2.12232 -0.222134 -4.19149 
0.21069 1.48773 -5.42046 
-14.6166 0.720571 -34.5693 
-0.347707 0.830778 -6.07151 
-2.495 -0.779341 -9.00667 
0.761462 -0.410772 -4.69826 
-20.4859 4.18219 -41.177 
-1.28837 -0.445271 -6.80898 
0.700045 -0.510426 -4.74221 
-0.00847432 -0.643643 -5.34776 
-22.4696 2.6084 -43.9122 
-14.3928 4.48095 -34.437 
-0.606125 1.41268 -6.31645 
-2.37528 1.64184 -8.94056 
0.808633 -0.392196 -4.62762 
0.198399 0.0526875 -5.62388 
1.6705 0.617657 -4.67633 
-21.0667 2.69475 -42.562 
-2.3434 -0.323206 -8.84823 
0.04104 1.04293 -5.81546 
-13.6451 -0.398641 -33.1175 
-0.533698 1.48848 -6.17872 
-20.0539 12.657 -40.8979 
-0.347426 0.830582 -6.07235 
0.723974 0.294662 -5.28707 
-12.6011 -1.21064 -32.3947 
-0.986805 1.08488 -6.90641 
-12.4288 5.82761 -32.5391 
-21.5999 11.9161 -42.896 
1.08018 1.03085 -5.28626 
-12.8465 -1.58073 -31.8187 
0.935746 0.257958 -5.03702 
1.93796 0.24839 -4.40613 
-13.0644 0.676961 -32.5871 
-14.9789 4.79739 -34.9151 
-1.34661 -0.216072 -7.20879 
-0.374374 -0.440621 -5.86671 
0.159939 -0.412033 -5.31673 
-27.6755 11.7269 -49.6105 
-2.11294 1.61114 -8.69757 
0.0246866 0.0463378 -5.72148 
0.449554 -0.402022 -5.00101 
0.134645 1.53442 -5.4812 
1.6445 -0.269226 -4.67933 
0.323865 -0.213181 -5.40059 
