ply
format ascii 1.0
comment VTK generated PLY File
obj_info vtkPolyData points and polygons: vtk4.0
element vertex 526
property float x
property float y
property float z
element face 0
property list uchar int vertex_indices
end_header
1.51165 -0.278203 -3.38186 
-7.70275 3.4112 -18.6104 
-7.59791 5.05154 -18.3404 
-9.05373 1.27343 -18.2535 
-7.66943 3.58947 -18.6456 
-0.0487272 0.413525 -4.75997 
-5.68857 3.82902 -16.8729 
-1.28788 -1.19317 -3.89946 
-8.95915 1.3607 -17.9693 
-7.64164 3.68729 -18.604 
-6.9995 4.85383 -17.859 
-5.62054 -0.150103 -16.8416 
-11.5014 3.18225 -21.3232 
-7.2516 2.55166 -18.2226 
-7.7107 3.03247 -18.6123 
-7.65377 3.41529 -18.5108 
-5.64677 0.351848 -16.8982 
1.56546 -0.210521 -3.34283 
-0.189807 0.0739679 -4.7078 
-7.69647 2.84174 -18.5756 
-5.82217 2.42591 -17.1981 
-9.58809 3.86152 -20.1103 
-9.38939 3.80906 -19.8515 
-5.78678 0.349113 -17.0127 
-1.30871 -1.17005 -3.76668 
-5.79295 0.195138 -17.0122 
-5.45744 -0.700764 -16.7026 
-7.50107 2.6442 -18.5388 
-7.2437 2.69421 -18.2147 
-5.63967 0.194641 -16.8673 
-7.68617 4.92259 -18.5321 
-6.84361 4.59566 -17.8603 
-5.64071 -0.296081 -16.8319 
-8.27623 4.59946 -18.8829 
-7.26287 3.01293 -18.281 
-5.84071 3.33907 -17.2754 
-7.58913 3.0664 -18.5079 
-7.50814 4.51662 -18.3516 
-9.13843 3.84739 -19.6006 
-7.80563 2.63575 -18.6624 
-5.74408 0.413871 -17.0295 
-5.4001 -0.495684 -16.662 
-6.70647 3.74385 -17.7179 
-7.07487 4.35999 -18.006 
-7.39079 5.70802 -18.5187 
-5.79366 -0.060704 -16.9959 
-7.76427 3.5649 -18.7279 
-7.42611 4.36321 -18.2627 
-7.70404 2.94525 -18.6107 
-5.78652 0.513295 -17.0173 
-5.83615 3.17971 -17.267 
-5.73123 -0.644362 -16.9153 
-5.72848 0.142603 -16.9674 
1.59148 -0.179903 -3.31726 
-5.49928 3.34501 -17.0167 
-5.67487 3.32886 -17.114 
-5.65518 0.611049 -16.9378 
-7.74844 1.9295 -16.6526 
-5.66317 0.51513 -16.9502 
-0.119854 0.144073 -4.86723 
-7.73886 1.9258 -16.6339 
-9.49631 0.134546 -19.7428 
-7.7118 2.22254 -16.6572 
-7.51758 4.96078 -18.2979 
-6.74673 5.07024 -17.7717 
-5.73222 0.562848 -17.0041 
-5.67028 2.42508 -17.0665 
-7.57116 3.67823 -18.5667 
-6.86798 4.48523 -17.9069 
-5.63805 3.94069 -17.088 
-7.60272 2.68566 -18.5314 
-6.81131 5.02185 -17.8206 
-5.4744 0.776139 -16.8215 
-5.87406 5.35852 -17.4228 
-6.46517 -1.11326 -16.5352 
-6.66882 -1.1127 -17.2359 
-6.44469 3.94266 -17.5344 
-8.18549 4.69328 -18.7455 
-5.58276 0.279439 -16.8968 
-8.01793 4.45407 -18.6583 
-7.10006 4.51883 -18.074 
-9.21918 5.91783 -19.9142 
-9.03194 1.22323 -17.9492 
-11.5807 3.18194 -21.5094 
1.57435 -0.180699 -3.32586 
-8.92649 1.306 -17.7162 
-7.47356 2.58464 -18.3559 
-7.49843 3.62624 -18.4975 
-0.0794245 0.469831 -4.82107 
-6.44781 4.05934 -17.5356 
-5.79807 3.29705 -17.2891 
-9.26611 5.22552 -19.8789 
-5.74432 2.48211 -17.1005 
-8.02127 4.45472 -18.6649 
-7.90127 4.35022 -18.7072 
-7.52621 5.31207 -18.6736 
-7.91564 1.92872 -16.7221 
-0.00553932 -0.343693 -4.50283 
-1.24446 1.55439 -6.70262 
-5.54939 2.37895 -16.9521 
-7.56815 5.36226 -18.6147 
-6.28134 1.19759 -17.1789 
-6.31216 2.2697 -17.4692 
-5.63279 -0.428934 -16.8014 
-7.21081 4.37631 -18.134 
-7.74069 6.53942 -18.8809 
-7.92489 4.39232 -18.6456 
-9.06577 -0.812847 -18.8639 
-9.40058 6.16176 -20.0574 
-6.86097 4.8258 -17.8124 
-5.74528 -0.360017 -16.9669 
-7.47162 5.17602 -18.2431 
-5.95645 3.98988 -17.3095 
-0.213111 0.0632568 -4.70269 
-5.64607 -1.57086 -16.4542 
-7.13172 4.78654 -18.1004 
-11.5805 2.54735 -21.4706 
1.58824 -0.286341 -3.30443 
-5.77876 3.74977 -17.2809 
-7.34148 5.28868 -18.3846 
-5.65054 -1.57419 -16.4732 
-11.7908 3.86347 -21.6271 
-5.90408 0.831052 -17.0715 
-6.38111 3.67856 -17.4242 
-7.54265 1.37116 -16.4255 
-8.95975 5.07784 -19.4892 
-8.61615 3.48839 -19.1523 
-6.4608 3.60377 -17.5495 
-9.59887 0.751032 -19.7614 
-5.72116 1.16879 -16.864 
-5.90377 -1.38248 -16.7232 
-6.44584 3.60598 -17.5038 
-7.43154 3.7428 -18.423 
-11.5888 6.11104 -21.6666 
-5.62489 -1.36072 -16.6146 
-5.92904 5.31485 -17.4482 
-1.43264 -0.0391527 -6.80878 
-5.81448 -0.180806 -17.0545 
-5.91193 -1.38593 -16.7528 
-9.188 5.25136 -19.8121 
-7.53439 3.52959 -18.5303 
-5.48762 2.43768 -16.9425 
-8.61685 3.89053 -19.0367 
-8.00697 4.94652 -18.7199 
-9.16231 6.77537 -19.8299 
-5.68739 4.23127 -17.0469 
-7.74913 6.39728 -18.8937 
-7.56626 3.54092 -18.6147 
-7.64492 5.14429 -18.4052 
-5.67001 2.93408 -17.0888 
-8.60079 2.20479 -17.1865 
-8.23825 4.30122 -18.685 
-7.60949 3.42563 -18.566 
-6.38801 3.49315 -17.4531 
-9.54152 6.16359 -20.176 
-8.0417 4.86894 -18.6791 
-0.0398787 0.37624 -4.7418 
-7.97617 4.25486 -18.5993 
0.983455 0.505524 -4.05672 
-5.59489 5.33437 -17.1747 
-5.58793 -0.0919849 -16.8255 
-8.0162 4.27003 -18.6999 
-0.219762 0.00820195 -4.67673 
-6.93197 4.68499 -17.9749 
-0.881211 -0.352606 -5.67194 
1.51022 -0.173121 -3.39865 
-7.70419 1.99463 -16.6478 
-9.19531 2.99536 -19.686 
-6.10701 5.15243 -17.3769 
-0.262461 -0.393015 -4.6648 
0.12334 -0.165577 -4.53622 
-6.0783 2.23707 -17.2093 
-11.304 -0.854268 -20.9269 
-6.80695 4.75515 -17.8526 
-7.84835 2.93727 -18.811 
-6.29649 1.36246 -17.1054 
-6.54698 3.96692 -17.5851 
-7.01734 4.98303 -17.8853 
-9.40504 6.76343 -20.1077 
-7.59698 4.56197 -18.361 
-0.868054 -0.370393 -5.67165 
-8.48895 3.94583 -18.9243 
-0.261857 -0.00770958 -4.68093 
-0.91572 -0.365561 -5.61071 
-6.90846 4.70929 -17.9438 
-7.6601 2.88538 -18.5602 
-6.82125 4.20163 -17.8557 
-7.71522 1.85454 -16.6538 
-9.6481 3.89196 -20.0273 
1.47512 0.480973 -3.50179 
-9.39445 3.24532 -19.8614 
1.49458 -0.196216 -3.41869 
-6.76879 -1.17499 -16.8616 
-7.83911 1.84514 -16.6647 
1.58003 -0.170672 -3.32366 
-6.06649 -1.28707 -16.8631 
-11.3314 3.86483 -21.2661 
-7.30619 4.64652 -18.0311 
-7.80363 4.30197 -18.5402 
-7.22717 4.92344 -18.1069 
-8.12114 4.48496 -18.6314 
-11.773 3.32597 -21.6819 
-8.99403 1.13433 -17.7268 
-10.7493 6.68381 -20.9758 
-7.74229 6.6487 -18.9009 
-7.87607 2.00035 -16.7356 
-6.49027 1.42902 -17.0085 
-6.60342 4.04394 -17.5592 
-0.178363 -0.0163332 -4.66945 
-5.62313 -1.29671 -16.6165 
-5.79007 0.0666714 -17 
-6.07394 -1.28619 -16.8693 
-6.62386 2.41899 -17.542 
-7.31573 4.74669 -18.1974 
-7.82442 3.36218 -18.7696 
-5.86053 -0.496126 -17.0106 
-6.75148 -1.16817 -16.808 
-6.94594 4.59217 -17.9281 
-11.5831 2.34109 -21.4602 
-0.207196 0.0372787 -4.69262 
-9.34865 3.81686 -19.8812 
0.181348 -0.338463 -4.33092 
-7.20992 3.97313 -17.8484 
-7.16614 4.27849 -18.069 
-8.60508 3.83987 -19.1377 
-7.85878 4.88907 -18.6594 
-9.45787 -1.25447 -17.2801 
-7.39398 3.61332 -18.4444 
-6.12071 0.388265 -17.0578 
1.4885 -0.30405 -3.41018 
-9.29613 1.51786 -17.8569 
-11.9432 2.13285 -21.59 
-5.86691 0.571109 -17.1098 
-6.11724 -0.159515 -17.0141 
-0.20168 -0.00093655 -4.67002 
1.56144 -0.187934 -3.34016 
-11.2741 -0.781506 -20.9631 
-11.6214 3.39877 -21.5392 
-8.12321 4.75034 -18.7718 
-11.5861 0.270111 -21.3141 
-6.65851 4.38409 -17.6914 
-6.52992 2.21217 -17.5953 
-8.07937 2.15722 -16.8097 
-7.86542 4.73812 -18.5345 
-6.99529 4.4504 -17.996 
-5.31129 0.859538 -16.5197 
-9.0955 1.34611 -17.5888 
-0.913656 -0.141315 -5.74178 
-5.57047 4.54415 -16.9774 
-1.43828 -0.156376 -6.80601 
-8.83298 1.26261 -18.6297 
-7.55814 2.21339 -16.5366 
-6.12741 1.61373 -17.0915 
1.05967 0.42194 -3.96152 
-7.38898 1.46149 -16.351 
-9.57381 6.77449 -20.1619 
-6.45665 4.34791 -16.1417 
-0.665019 -0.070268 -5.61228 
-11.4393 5.42912 -21.4892 
1.41723 0.14854 -3.53591 
-7.69191 2.53979 -18.607 
-0.977102 -0.208145 -5.82237 
0.504314 0.150961 -4.29843 
-6.41586 3.8777 -17.5329 
0.0855348 -0.165902 -4.58052 
-11.6322 6.2967 -21.6948 
-7.94466 2.24898 -16.7386 
-5.87762 -0.00149149 -17.0908 
-5.60873 4.17581 -16.9854 
-5.25788 4.38045 -16.732 
-7.45787 1.07324 -16.4188 
-6.36351 -1.73223 -14.8277 
-1.29287 -1.18949 -3.87243 
-9.4669 5.22487 -20.0672 
-6.67178 3.81061 -17.7285 
-7.54252 1.17053 -16.5299 
-6.53095 2.2106 -16.9888 
-0.29752 -0.392004 -4.71619 
-9.54484 6.4967 -20.202 
-11.6552 5.79235 -21.7011 
-5.78411 -1.4789 -16.5621 
-0.0787553 0.612148 -4.81396 
-8.12431 4.65459 -18.8051 
1.11433 0.315583 -3.89787 
-9.22697 6.77657 -19.9807 
-11.6685 5.55745 -21.7097 
-7.65119 4.24243 -18.4418 
-7.40384 2.04259 -15.3598 
-7.23229 1.36789 -16.5256 
-7.39883 4.46007 -18.2512 
-7.39007 1.37971 -16.3594 
-9.47542 3.43172 -19.966 
-8.60063 3.65629 -19.1582 
-7.70114 3.65693 -18.6324 
-6.08993 1.15489 -17.0708 
-6.84155 5.02636 -17.7733 
-9.66779 6.81993 -20.2482 
-1.41682 1.54211 -6.89339 
-7.64201 4.4102 -18.3735 
0.127803 -0.0616281 -4.53622 
-11.8405 6.77533 -21.8235 
-9.11352 0.871379 -18.1045 
-8.06264 1.85301 -16.8369 
-5.34791 4.37935 -16.7508 
0.299853 -0.599152 -3.87319 
0.482345 0.310945 -4.3516 
-11.4161 3.02595 -21.3356 
-9.53964 6.75153 -20.2143 
-5.62655 1.1136 -16.7548 
-11.8884 -0.983698 -21.3513 
-7.5156 1.42894 -16.4896 
-6.16816 2.26848 -17.2092 
-7.96648 5.03108 -18.5303 
0.168497 -0.350031 -4.33401 
-11.736 -0.887777 -21.4236 
0.486029 0.18809 -4.32422 
-9.57447 6.25782 -20.1786 
-6.77103 4.34558 -17.8187 
-7.22224 3.97226 -18.2096 
0.0854914 -0.0205077 -4.59362 
-5.88228 3.43616 -17.2974 
-7.25534 1.34255 -16.4853 
-8.53524 3.8647 -19.0933 
-5.58559 -0.0107289 -16.8306 
-5.64691 -1.46956 -16.4922 
-9.73171 -0.960375 -19.7247 
1.50445 -0.232173 -3.39995 
-5.53342 3.73057 -17.1214 
-7.58294 1.45898 -16.4574 
-0.191623 -0.0249963 -4.65789 
-8.94734 1.89302 -17.5215 
-5.72594 4.17343 -17.0712 
-11.2787 -0.529345 -20.9887 
0.0530573 -0.0729697 -4.61965 
-6.91898 1.84571 -16.8826 
-0.64793 -0.167481 -5.6262 
0.293357 -0.60927 -3.86675 
-7.36825 3.48225 -18.3373 
-6.11396 -0.424479 -16.9932 
0.628148 -1.06104 -3.47705 
-0.358309 0.613258 -4.97486 
-9.50962 6.39696 -20.2077 
-6.30642 1.56183 -17.2477 
-0.164918 0.0536552 -4.70273 
-11.5381 3.2254 -21.5172 
-11.4042 2.53074 -21.2912 
0.62596 -0.376753 -3.63961 
0.48456 -0.157235 -4.31779 
-5.38461 1.33393 -16.6417 
-5.6796 4.29483 -17.0269 
-5.56195 0.710273 -16.878 
-7.06878 3.64453 -17.9893 
-0.383586 0.145345 -5.13891 
-8.1685 4.82648 -18.8035 
0.501945 -0.421561 -3.7818 
1.2711 0.225117 -3.72036 
-6.75886 5.07198 -17.792 
-6.66216 1.92481 -16.9077 
-6.97086 4.3903 -18.042 
1.59296 -0.268936 -3.30834 
-9.345 6.21751 -20.0095 
-6.56751 3.73455 -17.6385 
1.35444 -0.207849 -3.58024 
-7.81557 4.7556 -18.5947 
-5.80665 2.77671 -17.2818 
-6.50491 0.989941 -17.1071 
-0.0654474 0.35978 -4.76279 
-7.51741 1.20245 -16.5801 
0.16183 0.0975398 -4.5038 
-9.70889 0.867162 -19.7884 
-6.60873 2.23179 -17.066 
-11.5699 2.37191 -21.4468 
-7.55054 3.32445 -18.7339 
-9.76015 1.07358 -19.7938 
-0.221014 0.0344915 -4.68151 
-5.565 -0.0519617 -16.7575 
-6.99844 1.70296 -16.4295 
-5.68557 4.60977 -17.0637 
-8.43776 2.72155 -19.0021 
-9.23124 1.16991 -17.7443 
-6.36499 0.919553 -17.2214 
-9.81992 0.83974 -19.7986 
-0.950385 -0.32669 -5.61307 
0.667199 -0.132377 -3.91139 
-6.28772 1.37253 -17.2036 
-0.00632669 -0.294679 -4.55428 
0.573567 0.0821221 -4.23778 
-11.4692 6.24392 -21.6024 
-7.11472 4.00468 -17.9111 
-5.89804 1.09925 -16.9679 
-8.96599 0.883012 -17.7762 
-8.10309 3.72677 -18.8126 
-7.78309 2.99977 -18.6821 
-6.46476 3.89069 -17.5589 
-7.78715 6.3179 -18.8796 
-10.6794 6.46713 -20.8943 
-0.0454694 -0.029667 -4.67152 
-5.54821 0.751702 -16.8405 
-9.2195 4.08218 -19.6899 
-8.04556 2.07466 -16.8092 
1.41604 -0.171201 -3.50545 
-8.43737 2.19488 -17.0689 
-5.90215 3.3219 -17.262 
-8.65336 6.31232 -19.3967 
-5.31602 3.97918 -16.7259 
-8.37331 2.1777 -16.9437 
-9.30925 6.31179 -20.0357 
-5.33831 3.99505 -16.7631 
-1.15658 0.567715 -6.54025 
-7.91368 3.96723 -18.444 
1.02366 0.521938 -4.01352 
-11.6843 0.188333 -21.3562 
0.525126 0.312763 -4.28273 
-9.61698 6.72147 -20.2482 
-6.04138 -0.904109 -16.97 
-7.57991 2.97139 -18.6459 
-8.1948 4.64032 -18.8301 
0.39608 -0.132858 -4.4288 
-7.57614 2.97004 -18.5612 
0.268405 -0.517166 -4.05309 
-5.98725 2.21357 -17.0139 
-10.8347 6.23251 -20.995 
0.117509 0.628423 -4.42545 
-0.922555 -0.250152 -5.72958 
1.42028 0.0586982 -3.53744 
-6.72075 3.61397 -17.7009 
-0.190352 0.840571 -4.95262 
-7.53276 3.19388 -18.5183 
-7.77679 1.84388 -16.6593 
0.408406 0.385068 -4.43922 
-1.04237 -0.819494 -3.865 
-0.64041 -0.0667326 -5.5987 
1.36612 0.0847215 -3.58921 
-9.32101 2.24848 -17.9766 
-6.25112 1.38109 -17.1528 
-6.71774 4.03408 -17.5339 
0.347012 -0.500788 -3.95937 
-0.188261 0.0477186 -4.69636 
-7.42403 3.01177 -18.5079 
-7.47339 4.03097 -18.1534 
-7.78633 6.01729 -18.847 
-5.44816 4.34414 -16.8621 
-9.45274 4.4324 -19.8593 
-6.3933 3.35592 -17.4626 
-8.59815 1.84357 -17.1481 
-6.75848 -1.08812 -16.8723 
-0.924852 -0.316344 -5.66375 
-6.48477 1.63297 -16.8056 
-0.166256 0.0741121 -4.70787 
1.23562 0.486634 -3.77826 
-7.58594 2.79361 -18.6476 
0.489604 0.2754 -4.34129 
-9.80194 -0.757979 -19.6741 
-11.411 0.483107 -21.1829 
-7.71373 3.9302 -18.4363 
-9.29294 3.36948 -19.8158 
-10.6357 6.2541 -20.8442 
0.533236 -0.423871 -3.74589 
-7.30734 5.03268 -18.1771 
0.71754 -0.284394 -3.69998 
0.127607 -0.0254719 -4.53907 
-7.25339 4.81403 -18.1508 
-9.73213 3.98953 -19.9903 
0.444521 -0.410373 -3.8339 
-0.368338 0.357204 -5.13647 
-5.50185 4.64689 -16.9407 
-0.0484002 -0.0702504 -4.66835 
-7.22387 1.44805 -16.5195 
1.3768 -0.276664 -3.55524 
-7.53282 4.35081 -18.3281 
-5.30428 3.89268 -16.788 
1.18689 0.0529703 -3.79685 
1.68179 0.0167187 -3.24172 
0.94992 0.648936 -4.11316 
-7.79373 6.75301 -18.8809 
-8.94409 4.08574 -19.2571 
-11.6829 5.30938 -21.7108 
-8.25277 4.03365 -18.7242 
-6.76083 3.78552 -17.6569 
-0.495824 -1.01591 -3.4571 
-11.6026 3.76622 -21.529 
1.34048 0.199175 -3.6155 
-7.27859 4.82316 -18.1382 
1.58284 -0.305643 -3.30206 
-0.938304 -0.274582 -5.6803 
-0.941242 -0.302912 -5.66341 
0.158349 -0.275816 -4.38814 
-11.6989 -0.100103 -21.3474 
1.07165 0.46272 -3.96276 
-7.40546 4.9227 -18.206 
-6.60203 1.92432 -17.1366 
1.36982 0.390978 -3.6198 
1.4378 0.166225 -3.52191 
0.47997 0.409144 -4.35535 
-1.29599 -1.18285 -3.76299 
1.2062 -0.293298 -3.75495 
-9.07877 1.40121 -17.7007 
-7.49888 1.8484 -16.5293 
-6.49466 1.50194 -16.9354 
-6.27314 1.4811 -17.2308 
-7.04351 -1.30482 -16.2583 
-0.911957 -0.297872 -5.67916 
0.47341 -0.397665 -3.80754 
-0.165632 0.862656 -4.92838 
-7.56836 3.86915 -18.5283 
-0.30024 0.677507 -5.05732 
-8.04387 4.69445 -18.7608 
1.20675 0.632947 -3.76539 
-6.78032 -1.39852 -15.8116 
-0.0122964 -0.102216 -4.60777 
-11.6582 5.33679 -21.6772 
-6.96285 3.73828 -17.8062 
-11.3263 6.7394 -21.3935 
-1.27477 1.1215 -6.72901 
0.332194 0.393252 -4.51967 
-0.0344697 -0.0298621 -4.649 
-9.32236 3.56487 -19.7915 
1.6439 -0.0420683 -3.26291 
-6.33024 0.424868 -17.2022 
-0.352997 -0.430813 -4.79005 
0.748042 -0.239506 -3.73718 
-6.31481 -0.120713 -17.1729 
0.0263366 -0.107736 -4.58755 
1.4956 -0.208095 -3.41425 
0.530216 -0.398429 -3.7544 
-11.5356 4.4773 -21.4199 
