ply
format ascii 1.0
comment VTK generated PLY File
obj_info vtkPolyData points and polygons: vtk4.0
element vertex 1707
property float x
property float y
property float z
element face 0
property list uchar int vertex_indices
end_header
0.761701 -0.248581 -5.85378 
0.604468 1.94401 -6.38341 
1.94097 -0.771701 -7.48945 
0.449024 1.98741 -6.23532 
-1.16181 -1.35598 -4.33817 
-1.30819 -1.36513 -4.19121 
0.624983 0.0582481 -5.96298 
0.555936 -0.356044 -5.76653 
1.96655 -0.739978 -7.52963 
1.96644 -0.752515 -7.5223 
0.459712 1.97073 -6.2243 
-1.31022 -1.3669 -4.19152 
0.534058 1.88221 -6.31195 
0.603409 1.92798 -6.40978 
0.750162 -0.205466 -5.89073 
3.26359 1.81111 -8.61619 
-1.73997 -0.178002 -4.70144 
-3.08853 1.82788 -5.6201 
0.537181 2.04958 -6.33295 
0.704384 -0.327944 -5.77354 
0.754857 -0.236153 -5.80941 
-1.78556 1.41665 -4.79958 
2.64497 -0.776253 -8.13645 
-1.31054 -1.35297 -4.19079 
0.708175 0.0334317 -5.96229 
1.65812 -1.3641 -4.67859 
0.744735 -0.28199 -5.8031 
2.71428 2.89887 -8.50329 
2.64758 -0.922794 -8.12467 
0.702477 0.254894 -5.9945 
0.464067 2.08709 -6.25429 
0.535808 2.17287 -6.34285 
0.470179 1.97772 -6.2359 
0.735812 -0.2495 -5.80528 
0.416767 2.08017 -6.21328 
0.810596 -0.265467 -5.79351 
0.512159 2.20219 -6.3079 
0.394467 1.44056 -5.77542 
2.63377 0.280382 -8.23894 
0.530811 2.09605 -6.29572 
1.97648 -0.8552 -5.35645 
1.98163 -0.848011 -5.35513 
0.634123 -0.0429667 -5.89804 
1.62763 -0.0516133 -6.7447 
0.485296 1.9251 -6.27963 
2.68993 1.12472 -8.31229 
0.470473 2.15276 -6.25539 
3.75033 1.98253 -8.45197 
-0.0481343 0.736056 -5.57166 
0.74972 -0.340267 -5.7724 
0.710658 -0.0466505 -5.88023 
0.626277 2.05349 -6.41181 
-1.29406 -1.34598 -4.20027 
0.73666 0.197092 -5.99431 
0.800528 -0.211972 -5.89421 
0.410674 2.01396 -6.24093 
0.559588 2.0337 -6.35301 
0.536145 1.9935 -6.30125 
0.529659 1.99806 -6.31612 
0.760166 -0.440451 -5.9055 
0.671962 0.00424863 -5.97923 
0.405896 1.4569 -5.74134 
0.782087 -0.184654 -5.90192 
0.766747 -0.281479 -5.78961 
2.64221 -0.979379 -8.13208 
0.780237 -0.18676 -5.90893 
-1.71945 -0.869329 -4.59254 
0.629479 0.0894626 -5.97929 
0.606142 -0.359541 -5.73786 
1.40312 -0.771386 -6.33326 
0.407617 2.01147 -6.23588 
0.0555859 -0.175013 -5.49896 
1.93011 -0.673731 -7.50743 
0.802691 -0.670548 -5.75556 
-1.21055 -1.35616 -4.2575 
0.0550773 -0.131157 -5.49906 
-0.135995 0.128092 -5.04105 
0.549105 1.87431 -6.33573 
0.888629 1.9713 -6.77709 
0.667853 1.61833 -6.00378 
0.81152 -0.315502 -5.79724 
-1.28955 -1.27191 -4.20998 
0.0739519 -0.0921768 -5.51622 
0.433839 2.1277 -6.24142 
0.996786 1.56432 -6.26319 
0.932139 0.55027 -6.18811 
0.452174 2.1691 -6.24182 
-0.606826 0.956245 -5.25502 
0.707251 -0.0459356 -5.90128 
0.485907 1.99964 -6.27148 
0.576664 1.88393 -6.36589 
0.83958 -0.266285 -5.78177 
0.810305 -0.242235 -5.82877 
-1.5854 0.859899 -4.73268 
2.67446 -0.950299 -8.0997 
0.571772 1.99078 -6.35305 
0.498462 2.21212 -6.29826 
0.603959 0.848001 -5.7819 
-1.14089 -0.136407 -4.60828 
0.0545707 -0.635813 -5.05784 
-1.44512 1.06081 -4.64968 
0.434603 2.12363 -6.24691 
0.787585 -0.292639 -5.79539 
0.054273 -0.174788 -5.50041 
0.598719 -0.298933 -5.7594 
3.2546 1.76861 -8.65129 
0.887005 1.97353 -6.78203 
0.433458 2.04375 -6.22295 
0.60119 1.51785 -5.98338 
-1.14201 -0.136125 -4.60899 
-1.90024 -1.1459 -4.59991 
-1.83711 -1.18173 -4.60649 
3.78598 2.63073 -8.47761 
0.778792 -0.268711 -5.79767 
0.572386 2.08795 -6.35328 
-1.00452 0.989839 -4.8537 
-0.939333 0.989196 -4.91974 
1.28247 1.10273 -7.05612 
-1.18154 -1.38232 -4.30989 
-0.591905 0.382416 -5.19479 
0.349341 1.42673 -5.73201 
0.267549 2.10175 -6.18214 
0.61298 -0.689451 -5.59019 
-1.58488 -1.2135 -4.40621 
-1.19215 -1.38146 -4.30121 
-0.939069 0.989071 -4.91783 
2.03344 1.67163 -7.84178 
-0.190023 0.145733 -5.04581 
-1.3627 -1.23638 -4.17333 
0.546896 0.833721 -5.70997 
1.63332 -1.37387 -4.82482 
0.158522 0.883034 -5.42289 
0.48329 0.843337 -5.65186 
-0.198527 -0.38449 -5.07322 
0.974774 1.58507 -6.2567 
0.215949 2.02334 -6.1296 
-0.577075 -1.37451 -4.36542 
-0.18679 -0.336965 -5.0974 
0.573472 -0.349807 -5.76321 
0.459617 1.98677 -6.22 
0.400091 1.31461 -5.56152 
1.6326 0.132622 -7.29752 
-2.05653 -1.4345 -4.42248 
-1.67812 -1.23244 -4.37595 
0.796565 0.201375 -5.9702 
-0.941067 -0.6697 -4.74536 
0.469288 2.05419 -6.24742 
-1.3614 -1.23587 -4.17234 
0.157834 0.846848 -5.47059 
0.966931 0.836037 -6.12721 
0.513216 1.88245 -6.31621 
0.542847 2.06218 -6.31064 
-0.0125651 1.28318 -5.79917 
0.912695 1.94227 -6.77696 
-1.53618 -1.39452 -4.2282 
-0.173665 1.26711 -5.67648 
1.06592 0.80444 -6.23665 
0.647393 0.227821 -5.99749 
-0.943218 1.60415 -4.99839 
0.80573 -0.347688 -5.79863 
-0.59894 0.944858 -5.27469 
0.600679 0.00215699 -5.92595 
0.168251 -0.392382 -5.59886 
-0.60263 0.975369 -5.25797 
0.57201 1.57596 -5.96933 
1.22486 1.17637 -6.2826 
2.65818 -0.798591 -8.14406 
0.120913 0.195349 -5.59482 
3.6078 2.17339 -8.59967 
-1.61965 -0.596321 -4.61475 
0.610507 -0.0152709 -5.90886 
0.788168 -0.315954 -5.78709 
-0.548638 0.201999 -5.24342 
-0.663621 0.111927 -5.10481 
-0.926818 1.25917 -4.95761 
-1.13635 1.4162 -4.78386 
0.957067 0.817854 -6.12395 
1.62147 -0.130096 -6.79162 
0.167294 -0.394311 -5.60307 
0.260324 1.7954 -6.15364 
2.69481 -0.300871 -8.20862 
-1.6196 -0.595971 -4.61427 
0.576461 -0.675466 -5.53767 
1.12173 -0.341929 -6.53399 
1.61851 -0.102313 -6.6958 
0.831607 -0.66389 -5.78888 
0.575892 2.07311 -6.36517 
0.157772 -0.91542 -5.0539 
1.95943 -0.951083 -5.33253 
0.540088 1.91149 -6.31841 
-0.276245 1.66998 -5.62559 
2.67176 -0.595209 -8.15958 
3.60113 2.62751 -8.62616 
1.96699 0.943651 -7.68112 
2.68602 -0.588683 -8.14125 
2.67011 -0.594613 -8.15297 
-1.483 0.876624 -4.65352 
-0.71691 -1.14614 -4.93852 
0.461306 1.95264 -6.23304 
2.34615 1.33802 -8.11493 
1.97102 -0.916183 -5.35242 
-0.69886 -0.639824 -4.98304 
-1.26225 -1.35966 -4.22997 
1.79881 1.16129 -7.56125 
-1.05345 0.603232 -4.77533 
-1.29347 -1.37146 -4.20391 
0.803897 -0.314075 -5.79222 
0.550089 1.93238 -6.3263 
-0.60992 0.217874 -5.18438 
0.0339892 -0.616068 -5.00166 
-0.207804 1.32848 -5.65358 
1.66945 -0.795487 -6.57461 
0.411757 0.835361 -5.71863 
-0.300513 1.68726 -5.61793 
-0.122977 -0.594006 -4.87101 
0.143952 0.217963 -5.54565 
-1.29572 1.26936 -4.60542 
0.419951 2.14895 -6.25853 
-0.487347 1.67935 -5.40669 
-1.07519 -1.14368 -4.5649 
0.658343 -0.313107 -5.80514 
-2.01689 -1.28087 -4.58883 
-0.684584 0.18743 -5.07398 
0.173129 -1.27428 -5.02392 
-1.14108 0.264842 -4.6609 
0.174604 -1.27352 -5.02311 
1.95387 -0.946724 -5.35107 
-0.967294 -1.13274 -4.68143 
-0.719615 -0.950005 -4.94494 
-1.41363 -0.579178 -4.42636 
-1.11398 1.40686 -4.80517 
-0.709801 -0.616577 -4.98122 
-0.155506 -0.340951 -5.1428 
-1.10049 0.0808765 -4.66525 
2.36197 -0.125804 -7.9842 
0.625737 1.32586 -5.79431 
0.35509 -0.744863 -5.32752 
-0.794784 -0.569323 -4.90855 
0.115691 0.0479121 -5.58139 
0.441343 0.651267 -5.69632 
0.402128 0.114238 -5.69335 
-1.10905 -0.429651 -4.60076 
-0.821466 1.78177 -5.12358 
0.277913 1.26208 -5.67183 
0.917697 -0.495635 -6.14075 
0.839601 -0.68122 -5.8028 
1.95482 -0.0886724 -7.58628 
3.72357 1.92884 -8.39504 
-0.133728 0.0715406 -5.08105 
-0.126094 0.155868 -5.07703 
-0.771376 1.11223 -5.11339 
1.0692 -0.324522 -6.47294 
-1.11763 0.611758 -4.70742 
0.672804 -0.354669 -5.79564 
-1.46718 0.529945 -4.56956 
0.726869 -0.303939 -5.78814 
0.403419 -0.650282 -5.35947 
0.0868402 0.0302746 -5.55798 
0.000744745 1.229 -5.80081 
-0.830702 1.09847 -5.04275 
0.673584 -0.175403 -5.9477 
-0.930503 1.38155 -4.97029 
0.343566 -0.661768 -5.33077 
0.538584 1.94614 -6.31018 
0.469838 1.9408 -6.27641 
0.923128 -0.186191 -6.17688 
0.530706 1.95661 -6.27357 
0.683136 0.183744 -5.96701 
0.382411 -0.642256 -5.36073 
-0.00119016 -0.63618 -4.99202 
-0.630924 -7.01223e-05 -5.1038 
-1.09737 0.258416 -4.69888 
2.66651 2.26484 -8.40877 
0.0792784 -0.330723 -5.52378 
0.747815 0.0252735 -5.98052 
0.383304 -0.642964 -5.3581 
0.570047 1.96797 -6.35825 
-0.854877 1.38948 -5.03293 
3.23288 1.79203 -8.67926 
1.74478 -0.783337 -6.6865 
-2.49152 -1.40572 -4.87362 
-1.09517 0.258167 -4.69473 
1.51532 0.658432 -7.2406 
0.488757 1.45733 -5.86412 
-0.97271 -0.14928 -4.7722 
-1.36913 -1.20248 -4.17164 
-0.841746 1.18262 -5.04057 
-0.819755 -0.587064 -4.84103 
-1.24196 -1.07224 -4.41166 
0.802453 -0.292576 -5.78594 
-0.713764 0.22812 -5.06576 
-1.05744 -0.780497 -4.6293 
3.60195 2.40066 -8.60948 
0.069562 -0.214475 -5.50546 
-1.80343 0.959245 -4.76472 
-1.05801 -1.13952 -4.5906 
-0.727118 -0.495157 -4.96227 
0.829663 0.638124 -6.15237 
-0.680648 -1.16777 -4.97938 
-0.699764 1.59306 -5.22036 
0.574702 -0.32909 -5.76159 
1.49569 -0.766048 -6.43314 
3.47596 1.97499 -8.69441 
0.854897 0.490959 -6.1636 
-0.562737 -0.000132045 -5.17992 
0.720436 -0.226116 -5.82142 
-1.1245 -0.433573 -4.59568 
2.61713 -0.87804 -8.18827 
3.92633 2.21832 -8.5353 
-0.0164457 1.35288 -5.82926 
0.97068 0.800571 -6.12571 
0.330354 -0.66237 -5.31366 
-0.685034 0.0529152 -5.05668 
1.81497 -0.363298 -7.4413 
0.0708678 -0.706983 -5.04088 
-1.56934 0.873038 -4.73396 
-0.0709519 1.17334 -5.76393 
-1.0149 -0.782085 -4.66812 
-0.179916 1.29194 -5.67273 
-0.510421 0.187871 -5.24439 
-0.24083 0.337084 -5.5262 
-0.830369 0.984001 -5.03691 
-1.34269 0.476395 -4.49631 
-1.06095 -0.906243 -4.62322 
-0.708569 0.0677144 -5.05127 
-0.589732 0.185615 -5.20192 
-0.168651 1.27931 -5.67631 
0.675682 0.540083 -5.99241 
0.23118 -0.383418 -5.65119 
0.926845 2.28171 -6.83686 
0.417715 0.878303 -5.70812 
0.481163 0.865995 -5.65488 
-0.939819 1.62213 -4.9929 
0.706212 -0.312904 -5.79023 
0.245745 -0.0878287 -5.69985 
-1.1718 0.0597874 -4.61105 
-1.0446 -0.769341 -4.64623 
-0.155627 -0.240874 -5.29756 
-0.114761 -1.02499 -4.81871 
-2.03426 -1.42879 -4.41773 
-0.530902 -1.29833 -4.95621 
-1.6111 -1.17458 -4.41836 
1.04767 2.29413 -6.94822 
-0.758293 -0.176504 -4.97289 
-0.509461 -1.24301 -5.05591 
0.471102 -0.197112 -5.7548 
0.307998 -0.647006 -5.27544 
1.44965 0.548933 -7.1617 
0.733737 0.263123 -6.01072 
-1.20613 -1.36811 -4.29155 
-0.374753 0.677049 -5.41194 
0.801208 -0.384242 -5.90199 
0.135518 0.822295 -5.49928 
2.26527 0.390509 -7.93207 
-0.125408 0.503358 -5.63854 
-0.185231 -0.362927 -5.0901 
-0.722524 0.232238 -5.06306 
0.219684 -1.27183 -5.00059 
0.645733 -0.664941 -5.60886 
-1.40937 -0.375131 -4.4329 
-0.612716 1.36709 -5.28433 
0.548135 0.875167 -5.71039 
3.92296 2.452 -8.559 
-1.42345 -1.22532 -4.20738 
-1.34293 -1.2479 -4.21001 
1.98528 -0.899358 -5.34834 
-0.720839 -0.953986 -4.9435 
-1.65893 0.948532 -4.78032 
-0.736612 -0.93744 -4.93193 
-0.703894 0.109038 -5.05027 
-1.13769 1.36925 -4.77772 
-0.771317 -0.458745 -4.95245 
-0.630098 -0.777737 -5.03678 
-0.417732 0.363267 -5.35214 
-0.814021 -0.447264 -4.88835 
-0.852108 0.417695 -4.94272 
-0.696797 0.127589 -5.05702 
2.16185 -0.967621 -7.70233 
0.682249 -0.287523 -5.82202 
-0.744919 0.756754 -5.08285 
2.72415 -0.596495 -8.159 
3.58734 2.19054 -8.59329 
0.517531 1.94846 -6.29174 
0.421956 2.03331 -6.22901 
-1.20086 -0.746723 -4.48594 
-0.706148 0.215316 -5.08181 
1.23611 -0.321505 -6.62582 
-1.52305 -0.626346 -4.55361 
0.554919 2.11597 -6.36274 
-1.15805 -0.141693 -4.59998 
-0.6132 1.36688 -5.28312 
-0.748974 -1.13307 -4.89124 
0.921529 0.836084 -6.125 
0.854527 1.41953 -5.95908 
-1.3196 -1.08766 -4.33414 
-1.1145 0.0753856 -4.65755 
0.724161 -0.303203 -5.78728 
-1.61018 -1.1715 -4.41265 
-0.706067 0.0442195 -5.0512 
0.469826 0.878829 -5.65778 
2.66762 2.89198 -8.50194 
-1.20889 -0.885937 -4.47983 
0.979535 0.819352 -6.13115 
1.36904 1.91515 -7.21898 
0.761931 -0.258895 -5.80057 
-1.01843 0.794206 -4.8269 
0.642963 0.872174 -5.8206 
-0.735439 -0.467147 -4.99111 
-0.924995 1.27385 -4.96436 
-1.02209 -1.14289 -4.60726 
-0.212168 0.695626 -5.58974 
0.67901 -0.153543 -5.9745 
-0.859326 -0.451707 -4.84952 
0.996969 2.02782 -6.88401 
-0.771913 -0.455223 -4.95054 
-1.06975 -0.42835 -4.649 
0.0960441 -1.03308 -5.02898 
2.17099 -0.0628949 -7.80204 
-0.31178 1.23904 -5.53935 
2.12757 0.0574685 -7.77639 
-0.914439 -0.178806 -4.82303 
-0.707576 0.168472 -5.05761 
0.408124 1.48609 -5.73852 
-0.883585 0.4026 -4.93612 
2.02743 0.736059 -7.74261 
-1.09974 0.594715 -4.71944 
-1.1203 -1.11396 -4.53554 
0.505141 0.777537 -5.71213 
-1.91481 -0.300376 -4.62499 
-0.601698 1.51814 -5.29879 
1.18029 -0.0951889 -6.61331 
0.506033 -0.171072 -5.77092 
-1.39355 -0.0805126 -4.45852 
-0.771154 -0.817294 -4.88429 
1.2001 1.89341 -7.05757 
-1.12627 0.239586 -4.67614 
-0.114885 -1.1147 -4.79241 
0.41768 0.33807 -5.61719 
0.656173 0.100813 -5.98858 
-1.01188 0.259323 -4.77127 
-3.10107 1.85164 -5.60546 
0.0795723 -0.636331 -5.07358 
-0.519903 -0.00458326 -5.21271 
-0.734026 -0.466812 -4.98636 
0.82724 -1.05013 -4.60406 
-1.39319 0.206795 -4.47381 
-0.950516 -0.167834 -4.79802 
-0.397258 0.704042 -5.40305 
-1.01844 -0.793091 -4.66361 
0.759822 2.2106 -6.67388 
0.410395 0.813576 -5.73187 
-0.478087 0.538719 -5.3074 
-0.675745 -1.11286 -4.93977 
-1.79472 1.11478 -4.79318 
-0.596202 1.08367 -5.25574 
-0.36246 1.03875 -5.47035 
-1.1888 -1.34707 -4.14354 
-0.657061 -0.713371 -5.00032 
-0.871613 -1.26311 -4.62887 
0.491675 0.881027 -5.66603 
3.70713 1.98525 -8.48662 
0.66394 -0.445579 -3.34292 
-0.692164 0.0984309 -5.05755 
-1.12007 0.25364 -4.67353 
0.0417104 0.036076 -5.49992 
2.74156 2.86667 -8.50054 
-0.738301 -1.20436 -4.87753 
-0.656188 0.217713 -5.11483 
-1.01836 -0.787807 -4.67532 
2.73366 1.16379 -8.29792 
3.70549 1.99543 -8.49281 
1.55642 -1.38508 -4.75878 
0.596092 1.83568 -6.46374 
0.443871 -0.447188 -5.67926 
0.131593 0.950841 -5.47253 
3.78139 1.99904 -8.34779 
0.748998 1.32948 -5.96335 
0.676227 -0.0616946 -5.89641 
0.476728 -0.204676 -5.75022 
-1.38234 0.683107 -4.52563 
-0.00444341 -1.17208 -4.91942 
0.605897 -0.400672 -5.74778 
-1.55486 0.929897 -4.75364 
2.30894 -0.0933479 -7.91267 
-1.11766 1.63151 -4.81176 
-1.37731 1.08578 -4.57446 
-1.15655 1.21382 -4.75144 
-0.871634 0.234586 -4.91317 
0.928173 0.263494 -6.07887 
3.58632 2.6494 -8.63851 
-0.496043 -0.610858 -5.16099 
0.143192 -1.04994 -5.06602 
0.401857 0.860133 -5.72187 
-0.25727 0.930848 -5.54865 
-1.19051 1.20908 -4.70533 
1.84324 1.91914 -7.68583 
-0.983813 -0.433614 -4.72877 
-0.601888 1.73913 -5.32217 
-1.3786 1.08649 -4.57747 
-0.825692 -0.806975 -4.83961 
-1.08284 0.0641827 -4.67602 
0.633749 2.03651 -6.42142 
0.275234 -0.656651 -5.25315 
0.444606 0.152367 -5.71778 
0.724582 -0.320118 -5.76925 
-0.659568 -0.943789 -4.95661 
0.423203 2.11886 -6.2283 
-0.603526 1.7402 -5.32887 
0.615499 -0.764263 -5.58537 
-1.94839 -1.27688 -4.54606 
-0.829644 1.78033 -5.11153 
-0.70574 -0.785302 -4.93561 
3.42458 2.861 -8.76245 
1.74962 -1.38069 -4.7625 
-0.0902652 1.29404 -5.75709 
-0.599056 1.74943 -5.32482 
-0.614976 -0.5398 -5.06504 
-0.710111 -1.11071 -4.92298 
2.00145 0.799672 -7.71728 
0.4827 1.90225 -6.28221 
-0.845971 1.76149 -5.09778 
1.91692 -0.670614 -7.49304 
-0.402187 1.22392 -5.44981 
0.420273 0.732261 -5.7373 
1.05005 0.983015 -6.27444 
-0.711262 1.82628 -5.22331 
-0.166224 -0.125372 -5.28211 
-0.719143 -0.961382 -4.94226 
3.6973 2.85134 -8.54698 
-0.5701 0.369737 -5.20861 
-1.64264 -0.569914 -4.61528 
0.437058 2.07886 -6.23521 
1.84913 0.111531 -7.50633 
0.611328 -0.296026 -5.75912 
1.38824 -1.12817 -4.7898 
-0.807051 -0.479127 -4.85794 
-0.97028 -0.779146 -4.72477 
0.618579 -1.25547 -4.5945 
-0.785627 1.42497 -5.11192 
0.51477 1.48085 -5.88797 
0.0737062 1.46366 -5.94176 
0.474611 0.148378 -5.74884 
0.630287 0.502599 -5.95513 
1.96245 -1.28011 -5.26709 
1.45666 -0.718087 -6.62899 
0.0986071 -0.0712767 -5.54111 
0.0724356 -0.699324 -5.05752 
1.45144 -0.819574 -6.3748 
2.73462 2.8492 -8.46316 
0.364073 2.00462 -6.25011 
1.69632 1.04916 -7.47323 
-0.128706 1.02367 -5.68921 
-0.992406 0.793735 -4.85656 
-0.243694 -0.0582418 -5.09994 
-1.22569 -1.09005 -4.43699 
0.72257 0.505228 -6.04286 
0.361031 0.906114 -5.73465 
0.621391 -0.120268 -5.95865 
-1.08228 0.988734 -4.78076 
0.767526 0.483014 -6.07948 
-0.873929 -0.51492 -4.83608 
-0.260194 1.22772 -5.59257 
0.911389 -0.91721 -4.61294 
0.628212 -0.0242052 -5.9057 
1.65956 2.2537 -7.55077 
-0.763675 -0.851287 -4.90445 
-0.402206 0.361921 -5.36938 
0.728929 0.532768 -6.03545 
-0.481882 0.36968 -5.30397 
0.635407 -0.363159 -5.74612 
-0.847803 0.600971 -4.95826 
-0.256888 0.933185 -5.55803 
1.22747 0.312239 -6.55143 
-0.383697 1.20738 -5.47042 
0.565046 1.93098 -6.36503 
1.65771 0.313207 -7.35607 
0.201185 -1.28583 -4.99277 
-0.988783 -1.14982 -4.66017 
0.263964 2.03288 -6.18073 
1.9815 0.598625 -7.66403 
0.126468 -0.623394 -5.11246 
1.59137 2.55487 -7.51214 
0.668134 1.19061 -5.75371 
-0.279859 1.7158 -5.62778 
1.63915 2.21566 -7.4949 
2.33814 1.80106 -8.12094 
-1.38357 -0.214001 -4.43579 
-0.638945 -0.96708 -5.01843 
0.876111 0.264655 -6.07669 
-1.14263 0.0699734 -4.70052 
-1.01817 -1.12804 -4.63094 
-0.755504 1.80468 -5.17868 
1.04492 -0.90374 -5.87802 
-1.20389 -1.09546 -4.45089 
-0.751715 0.569743 -5.05967 
0.168573 -0.140998 -5.51371 
-0.817084 -1.14178 -4.82358 
1.1022 -0.180524 -6.50604 
0.486401 1.86557 -6.33146 
0.751915 1.17754 -5.82949 
-0.3937 1.79505 -5.51982 
-0.115356 -0.696424 -4.87284 
2.32448 1.70171 -8.15338 
-1.05375 -0.756917 -4.61884 
-1.29172 -0.0776583 -4.46601 
-0.709174 -0.417656 -4.9829 
0.455588 -0.321726 -5.70153 
-0.33609 0.902133 -5.4825 
-1.16126 1.21146 -4.74281 
-0.95463 -0.634189 -4.74932 
0.840372 -1.05193 -4.60145 
3.7893 1.99734 -8.41254 
-0.981696 0.598625 -4.83926 
-0.852912 1.15782 -5.01807 
0.865189 1.31763 -6.05471 
-1.01135 0.259872 -4.77056 
0.614716 0.485464 -5.93508 
-1.06544 1.4129 -4.85287 
-1.17342 -0.212851 -4.56739 
3.2076 -1.63741 -8.06104 
0.480425 1.38447 -5.78562 
-0.933562 -1.13311 -4.70692 
0.54132 -0.382463 -5.77406 
-1.18253 -1.12846 -4.46587 
0.43004 -1.17037 -4.86411 
-0.539916 1.72765 -5.37522 
2.66866 1.89747 -8.36292 
-0.371036 0.343126 -5.38043 
0.551603 0.857478 -5.71653 
-0.536449 -0.672015 -5.14312 
0.893147 -1.10957 -4.59166 
-0.479704 -0.889533 -5.07468 
0.271056 -0.685389 -5.25556 
0.112993 0.0701877 -5.57764 
-0.816581 -1.13687 -4.83172 
0.811003 0.410661 -6.16364 
-0.639055 1.54638 -5.27667 
0.594772 -0.309317 -5.75589 
0.432445 -0.752846 -5.39749 
1.76954 2.05355 -7.62654 
-0.744344 1.44675 -5.14351 
3.90419 2.19829 -8.3445 
-0.645055 1.25268 -5.22604 
0.0857272 1.91376 -6.00488 
-0.702899 1.12752 -5.14386 
-0.874978 -1.13208 -4.76316 
-0.784054 0.131861 -4.98073 
3.7062 2.01266 -8.52942 
-0.559259 -0.031922 -5.17587 
-0.707896 -0.379485 -4.99615 
0.133415 -0.0753198 -5.57013 
0.958764 0.0951562 -6.2043 
2.34367 0.419161 -8.00812 
0.215834 -0.364827 -5.63408 
-1.91416 -1.2572 -4.52364 
-0.814752 1.30519 -5.07389 
1.0918 -1.10954 -4.58367 
0.122264 0.262231 -5.57115 
-0.581537 0.0152839 -5.15124 
0.456777 0.836276 -5.6815 
-0.596946 1.53511 -5.30009 
1.77919 0.449699 -7.46192 
-0.802939 1.74754 -5.13551 
-1.21152 -1.36612 -4.2985 
0.482268 0.861854 -5.66403 
-1.71865 -1.24749 -4.37617 
0.776922 1.02601 -6.00151 
0.31311 -1.37017 -4.8938 
1.65341 0.117142 -7.31846 
2.36811 -1.04348 -7.91088 
0.849023 -0.699406 -5.79094 
1.55089 1.73945 -7.37908 
-0.83107 -0.161775 -4.91735 
0.759781 1.30667 -5.96716 
-0.631599 -1.00496 -5.01104 
0.785282 -0.69589 -5.75516 
0.972405 0.781554 -6.13756 
-1.03939 -0.662209 -4.64597 
-0.582251 0.0166295 -5.15271 
-0.603342 0.73644 -5.21899 
1.63582 2.39013 -7.5331 
0.801282 0.435673 -6.11201 
0.0711521 -0.19354 -5.49511 
2.11008 0.381756 -7.77882 
2.02798 0.916824 -7.76275 
-1.63282 -0.551437 -4.60542 
-0.723708 0.10603 -5.035 
-0.0197047 1.4595 -5.83554 
0.311711 -1.02377 -5.00317 
0.716887 1.31288 -5.92936 
1.44752 1.07892 -7.20707 
-0.555546 1.74146 -5.36553 
1.11043 2.35277 -7.0222 
-0.777075 -0.812964 -4.88685 
-1.04995 -1.13595 -4.59271 
-1.12479 -0.186527 -4.61515 
-0.517864 -1.21444 -5.07514 
-0.540561 1.72902 -5.37989 
-0.582046 0.0256233 -5.1559 
-0.937577 0.260435 -4.84432 
1.11799 -0.730662 -6.05142 
0.886763 0.060545 -6.16261 
-1.22986 -1.37576 -4.24349 
-1.93511 0.195837 -4.6909 
-0.692042 -0.778553 -4.96298 
0.5726 1.29952 -5.65416 
-0.98492 -0.157184 -4.75308 
-0.195503 -1.36525 -4.68938 
-0.382383 1.03766 -5.46226 
-0.712166 0.14096 -5.05174 
-0.906934 1.17241 -4.96872 
1.72638 2.04556 -7.58143 
1.25774 0.369139 -6.56806 
-0.769597 1.21681 -5.10005 
1.91578 -1.2819 -5.35254 
-0.83709 0.785687 -5.00526 
-0.227877 1.68832 -5.66761 
-0.554621 1.74771 -5.36521 
0.825731 0.376672 -6.13751 
-1.12375 1.12043 -4.74864 
-1.99656 -1.29044 -4.57016 
-0.733078 1.43205 -5.15372 
-0.181791 1.41631 -5.67892 
0.522254 1.07628 -5.7342 
0.794475 -0.367234 -5.90017 
-0.657549 1.27263 -5.2237 
-1.06872 -0.153568 -4.66757 
-1.2753 -1.16728 -4.33114 
-1.07239 1.41681 -4.85396 
-0.119716 1.65236 -5.75495 
-0.70992 -1.06155 -4.91953 
0.592223 0.46047 -5.9124 
-1.02867 0.983516 -4.83599 
-0.71038 0.0997804 -5.05357 
-0.825588 -1.10481 -4.7944 
0.548469 -0.538375 -5.68336 
-0.830994 -0.295957 -4.89607 
2.36064 -0.652435 -7.94947 
-0.837872 0.230869 -4.93129 
-0.806942 -0.310039 -4.91763 
0.201266 0.368226 -5.67976 
-0.860301 -1.1478 -4.76788 
0.599645 1.97825 -6.39137 
2.71639 -0.717451 -8.13875 
-0.771005 -1.15006 -4.8678 
0.147915 -1.14507 -5.06502 
-0.302414 -0.0431851 -5.1316 
-0.58402 -0.632064 -5.08251 
1.0081 -0.937696 -5.84256 
-1.09948 -1.14633 -4.55263 
-0.801559 -0.778702 -4.866 
0.24913 0.102915 -5.71819 
-1.21329 -1.24858 -4.28816 
1.53911 -0.71418 -6.58391 
0.443235 0.320362 -5.61365 
-3.03233 1.78596 -5.65941 
0.615488 -0.754602 -5.58528 
-0.981889 -0.773169 -4.70351 
0.748392 1.02049 -5.9761 
-1.11952 -0.173843 -4.63252 
-0.861422 -1.14901 -4.77244 
-0.879601 -1.28379 -4.62685 
1.70727 2.37712 -7.6043 
1.92818 -0.946232 -5.37273 
2.03618 0.942834 -7.76097 
0.54523 -0.679858 -5.50897 
-1.28981 -1.21555 -4.22804 
-1.2503 -1.09672 -4.40524 
-0.565779 -1.16208 -5.06033 
-1.11395 0.229182 -4.6814 
1.00096 0.828483 -6.1635 
0.148707 -1.36987 -4.97361 
-0.883286 -1.08347 -4.74842 
-1.6518 0.612377 -4.76994 
-1.80788 -0.156576 -4.63086 
-0.601086 -0.694961 -5.05881 
0.629914 -1.00657 -4.66786 
-0.762083 1.33766 -5.11943 
-1.06048 -1.13411 -4.57218 
2.68946 1.23635 -8.31169 
0.937513 -0.486402 -6.16602 
-0.384445 0.369371 -5.39213 
-1.29299 -0.737012 -4.39689 
-1.80154 1.61134 -4.85292 
0.243993 0.331818 -5.72931 
1.18271 -0.722194 -6.11936 
-0.560414 0.750353 -5.25134 
-1.05639 1.41517 -4.86523 
-0.953653 0.979747 -4.89864 
0.347016 1.8906 -6.23845 
-0.584371 -0.632105 -5.08333 
0.691497 1.20615 -5.79028 
1.53309 -0.293728 -6.78575 
3.42618 2.90526 -8.8306 
-1.12287 -0.187052 -4.61372 
2.14962 0.404542 -7.82883 
-0.0103942 -0.110822 -5.45531 
0.125443 0.450368 -5.48778 
-0.625652 -0.668809 -5.04673 
-0.555492 -1.14967 -5.07423 
2.32794 2.04064 -8.14998 
0.0678031 0.710944 -5.51302 
2.36805 1.75138 -8.11893 
-0.969952 0.976732 -4.89346 
0.586346 -0.366392 -5.7589 
2.11207 0.382318 -7.79031 
-1.32056 -0.9007 -4.34495 
1.8196 0.434708 -7.50551 
1.09331 2.31179 -7.01321 
-0.622249 0.729726 -5.20649 
-0.708789 0.758207 -5.12902 
0.650328 -0.329261 -5.77237 
-1.07952 -1.12685 -4.56884 
1.04187 0.716632 -6.22787 
0.950628 1.5822 -6.22597 
1.65385 -0.729634 -6.71267 
-0.742844 -0.431778 -4.95758 
0.418058 -0.0459993 -5.69162 
-0.914974 1.33176 -4.98245 
-1.37142 -0.578458 -4.38587 
2.34933 1.70742 -8.14793 
0.620169 -0.418163 -5.71533 
-0.74363 -0.432311 -4.96007 
-1.11007 0.449377 -4.70765 
0.41837 1.26784 -5.61448 
-0.800995 -0.756345 -4.86802 
-1.4812 -0.495084 -4.48945 
0.826669 0.343444 -6.13765 
0.217101 -0.360853 -5.63786 
-1.88596 0.700906 -4.76209 
1.24086 -0.731853 -6.18634 
-0.634033 -0.989193 -5.01848 
-0.789033 0.0297795 -4.97817 
-0.359197 1.77711 -5.55296 
2.74211 -0.797437 -8.11848 
-0.675426 -0.311089 -5.04103 
0.962082 0.678453 -6.15416 
-0.160529 1.92444 -5.75375 
-0.605772 -0.0317346 -5.11942 
-0.941702 -0.132873 -4.80523 
-0.684683 -0.635247 -4.98463 
-0.900219 -0.635794 -4.79816 
-0.967599 1.39395 -4.94484 
0.196888 -0.816367 -5.0584 
-0.395212 0.676795 -5.40739 
1.36171 -1.0671 -4.77673 
-0.905996 1.17252 -4.96629 
3.65977 2.01303 -8.754 
-1.13443 -0.900574 -4.54783 
-0.228632 1.04483 -5.59934 
0.324096 1.87487 -6.21667 
-0.709479 1.72214 -5.21599 
-1.00684 -0.51694 -4.68989 
-0.827623 1.31054 -5.04994 
-0.939746 -0.435662 -4.75461 
1.67454 0.812229 -7.41962 
-0.0107619 -0.751061 -4.88925 
-0.566601 0.229206 -5.19686 
0.349205 1.91698 -6.23945 
-0.935498 -0.184508 -4.81062 
-1.02164 -0.411066 -4.70045 
-0.816745 -1.15076 -4.81769 
1.29046 -0.327253 -6.69413 
-1.29755 0.34738 -4.49265 
1.84948 -1.12147 -5.26327 
-1.32329 -0.734518 -4.36588 
-0.569079 -1.01703 -5.04968 
0.563827 -0.527172 -5.69866 
0.477201 0.738937 -5.68432 
-0.124308 0.893347 -5.58164 
1.37589 2.57128 -7.30334 
-0.919328 -0.664164 -4.77089 
-0.762452 0.760795 -5.07142 
-0.888623 -0.170057 -4.83996 
0.106438 -1.0063 -5.03423 
-0.494037 -1.30354 -4.98682 
0.523777 -0.0196287 -5.80324 
-1.22596 -1.03274 -4.43881 
-0.83693 -0.510351 -4.84443 
-0.919163 -0.164698 -4.83029 
-1.25525 -1.08009 -4.40361 
-0.797926 -1.12401 -4.84436 
-0.690983 0.403803 -5.10588 
1.14845 -0.67885 -6.21395 
-0.809445 -0.815935 -4.85971 
-0.49913 -0.347537 -5.21009 
0.104478 0.715897 -5.54812 
-1.31569 -0.591871 -4.3769 
0.408765 1.30233 -5.61402 
-0.487247 1.58977 -5.42289 
0.914063 1.28906 -6.10177 
-1.95379 -0.289799 -4.61329 
-0.16596 -1.23664 -4.6836 
-1.53858 1.63302 -4.81233 
0.212665 1.71581 -6.08996 
-1.5249 1.37145 -4.74233 
0.426089 1.9731 -6.22785 
2.74248 1.10959 -8.30555 
-1.13042 -0.1624 -4.62083 
0.776868 0.239462 -6.08401 
1.57405 1.43402 -7.38448 
-0.145029 -0.32608 -5.15529 
-0.771104 1.21382 -5.09595 
1.81335 2.5062 -7.7234 
3.79627 2.21928 -8.46696 
-0.902528 1.67294 -5.02402 
2.62419 2.32879 -8.46206 
-1.57755 -1.167 -4.50579 
2.31195 1.01051 -8.03927 
-0.780813 1.49884 -5.12224 
-0.853136 0.779624 -4.98173 
-1.27763 -0.252662 -4.466 
-0.496733 -0.499922 -5.19589 
0.387488 0.323558 -5.60313 
-0.661392 0.00696881 -5.07901 
-3.22353e-05 1.32501 -5.81872 
-1.30495 0.350886 -4.49987 
-1.79803 1.5615 -4.84524 
-1.1814 -0.601023 -4.52086 
2.33428 2.55089 -8.23485 
0.909285 0.672596 -6.20752 
0.425542 -0.948375 -4.89967 
-0.85948 1.22067 -5.01732 
-0.253627 -0.571422 -4.89195 
-0.629947 -0.544663 -5.06053 
-0.685888 -0.537688 -5.00455 
-0.692583 -0.949373 -4.96675 
1.89423 0.0827089 -7.54394 
1.9621 -0.897396 -5.37086 
0.282409 0.912551 -5.66417 
0.174343 -0.83728 -5.04768 
1.57216 -0.745193 -6.50033 
0.907788 0.672566 -6.20808 
0.976368 0.699787 -6.15961 
0.646853 1.85858 -6.51582 
-0.920863 -0.15506 -4.82978 
-0.225874 1.21584 -5.62757 
-1.01938 0.811623 -4.83188 
-1.00668 -0.516858 -4.68932 
-0.625108 -0.463511 -5.07601 
-0.72732 0.106748 -5.04175 
-0.910498 0.351156 -4.89437 
0.891827 1.93889 -6.77839 
-0.56598 0.22715 -5.19587 
3.87461 2.01294 -8.49108 
-0.0509616 1.32027 -5.77598 
-0.901853 0.0460909 -4.8662 
0.0933873 0.709461 -5.50828 
-1.48162 -0.503784 -4.4879 
-0.29413 0.744199 -5.51216 
0.0937175 2.12926 -6.04346 
1.62241 -0.806807 -6.54326 
-0.689541 1.2179 -5.17513 
0.133048 -0.336737 -5.56251 
-0.907475 -1.11978 -4.73385 
-0.731396 -1.14156 -4.90448 
0.927959 0.592668 -6.18032 
-0.677315 -0.784042 -4.97739 
0.936115 0.609267 -6.14415 
-0.693441 -0.838596 -4.95823 
0.92913 0.0973247 -6.18362 
-0.608126 0.373826 -5.18043 
0.148273 0.371138 -5.61929 
-0.565297 0.224201 -5.19665 
0.936073 2.17641 -6.84049 
-0.990941 -0.771977 -4.66538 
-0.924822 -0.784128 -4.75002 
-0.60796 -1.05803 -5.02396 
-0.197467 1.59214 -5.68479 
0.274392 -0.801462 -4.99879 
-0.68026 0.964878 -5.16616 
0.130303 -1.11856 -5.04103 
0.345956 2.051 -6.2454 
-0.753905 -1.19312 -4.87455 
-0.619934 0.990032 -5.21842 
-1.14723 -1.14419 -4.49801 
3.22436 1.90198 -8.69996 
-1.17569 -0.417759 -4.54522 
-0.39871 0.752445 -5.40494 
1.04329 -0.965987 -4.60235 
-0.684406 1.10021 -5.17979 
1.74892 -0.883825 -6.64803 
0.580374 0.865672 -5.75201 
-0.762775 0.499995 -5.03636 
0.408034 0.397673 -5.70244 
-0.971719 -0.770076 -4.6871 
1.96011 1.86446 -7.77926 
-1.05284 -0.889146 -4.62903 
2.02022 -0.104405 -7.64559 
-1.03452 -1.16654 -4.5921 
0.130784 -1.1164 -5.03831 
0.918918 0.114506 -6.17471 
-1.16881 -0.380925 -4.549 
1.09513 2.18635 -7.00361 
0.0197242 1.8021 -5.92523 
-0.208515 -0.676705 -4.85651 
-0.583805 1.80161 -5.34642 
-1.13586 -0.262172 -4.61345 
-1.47811 1.63469 -4.74899 
1.18677 1.00532 -6.54195 
0.462269 0.0661828 -5.74607 
2.34519 -0.492252 -7.89726 
-1.61945 -1.23419 -4.34405 
0.758706 -1.10537 -4.5848 
-0.870976 0.975722 -4.98151 
-0.483594 0.716834 -5.34057 
0.522927 0.833511 -5.71412 
0.841479 1.00848 -6.06065 
-0.897357 -0.232291 -4.82643 
-0.541739 0.0182189 -5.1988 
1.42543 -0.836953 -6.35622 
0.454293 -0.339037 -5.70215 
-0.936264 -1.1076 -4.69791 
0.402585 0.888097 -5.72051 
2.30737 -0.82854 -7.85664 
-1.26492 -0.0798419 -4.48817 
0.455952 -0.23984 -5.71404 
-0.517747 1.58774 -5.40281 
-0.0150989 1.93694 -5.90334 
0.622329 -1.10574 -4.68435 
-0.876725 -0.868137 -4.78205 
1.22313 -0.834782 -6.13466 
0.193723 -1.35377 -5.00208 
-0.117893 -0.893631 -4.83012 
-1.10405 -0.746813 -4.57059 
1.73628 2.02598 -7.58235 
1.66367 0.457028 -7.3699 
1.83921 0.405851 -7.4897 
-1.08251 -0.432219 -4.64677 
0.650252 -0.156404 -5.95935 
-0.100171 -0.354453 -5.34756 
-1.26526 -0.0801187 -4.48583 
-0.329665 0.458354 -5.4388 
-1.15395 -0.257655 -4.59774 
-0.0420541 -0.232575 -5.39667 
-0.645664 0.955954 -5.2142 
-1.08425 1.62665 -4.85225 
0.884755 1.29444 -6.08336 
-0.654289 0.982119 -5.18347 
0.861088 1.87065 -6.74023 
-2.01772 -1.39493 -4.5646 
-0.484771 0.715072 -5.34257 
0.248634 2.08666 -6.16796 
-1.318 -0.353145 -4.4115 
-0.139846 -0.682868 -4.84562 
-0.0420669 -1.35447 -4.78095 
0.552748 1.0492 -5.78504 
-1.27408 0.0860051 -4.5053 
1.94557 1.6692 -7.72826 
0.891103 -0.713633 -5.84778 
-1.198 -1.10196 -4.45618 
0.598204 2.0515 -6.40331 
1.08027 -0.445758 -6.48741 
-0.431841 1.5687 -5.46789 
-1.38815 -1.11555 -4.3397 
0.595974 -0.0140292 -5.9196 
-1.15952 0.0512535 -4.62578 
-0.841319 1.14875 -5.03194 
1.41808 2.28216 -7.30424 
1.42255 -0.848731 -6.36088 
-0.892774 1.39564 -5.00958 
-1.22232 -1.11741 -4.4198 
-1.81806 1.58346 -4.84631 
1.46793 1.06528 -7.22489 
-1.87821 -0.277492 -4.6848 
-0.876465 -0.197981 -4.84934 
1.26629 1.77046 -7.09185 
-3.0031 1.24245 -5.60324 
-0.162354 0.541135 -5.6051 
-1.35399 -1.14263 -4.32096 
0.948565 -1.06372 -4.5925 
0.423944 0.127932 -5.71106 
-0.778468 -0.857956 -4.88249 
-1.98734 -1.25712 -4.57059 
-0.265653 0.906499 -5.54846 
-1.28445 -0.826174 -4.38982 
1.07947 2.34776 -7.03388 
1.38922 1.78926 -7.23043 
2.64236 -1.0378 -8.13238 
0.862185 1.18333 -5.96684 
-1.10029 0.220142 -4.67801 
0.478863 0.763244 -5.6939 
-1.3203 0.156924 -4.4676 
2.32826 2.80705 -8.23098 
1.15761 -0.809345 -6.10263 
-0.688648 -1.04572 -4.94128 
-0.116722 1.29604 -5.73288 
0.389652 1.95313 -6.26701 
2.36594 1.06406 -8.07904 
1.18507 -1.2165 -4.52134 
-1.00717 -0.218432 -4.72088 
2.3782 -1.01354 -7.89103 
-1.23063 -1.24817 -4.27329 
2.17734 -0.786744 -7.73809 
-1.17901 -1.35071 -4.32716 
-0.729073 1.16284 -5.15911 
1.3798 1.08502 -7.15478 
0.16652 1.93781 -6.07163 
-0.56789 0.951391 -5.27427 
1.83666 0.417249 -7.52991 
0.25325 0.372542 -5.7407 
0.803783 2.05729 -6.71855 
0.949885 -0.916224 -4.60696 
-1.32234 -0.748367 -4.36108 
0.449526 -0.399165 -5.71665 
0.606892 0.890014 -5.77024 
-1.00503 -0.766884 -4.66908 
-0.143885 -0.585782 -4.85607 
0.889274 -0.0855568 -6.15161 
1.33543 1.10135 -7.11936 
0.939752 -0.50979 -6.17426 
0.0674203 -0.304222 -5.50752 
-0.199648 1.47473 -5.66929 
-0.913529 -1.2725 -4.58315 
-1.06804 0.258003 -4.72975 
-0.776169 0.756875 -5.05519 
-1.17481 -1.35579 -4.32396 
1.42123 -0.733346 -6.37061 
-1.22839 0.658805 -4.6045 
-0.875112 -0.199912 -4.87583 
0.0883476 -1.14225 -5.0117 
-0.985838 -0.277028 -4.73659 
-1.06666 -0.413359 -4.6418 
0.30164 0.918691 -5.66335 
0.907163 -0.0997448 -6.18532 
0.473923 0.681936 -5.66088 
0.671857 -0.123308 -5.96783 
2.01815 1.69264 -7.817 
1.4538 2.23547 -7.33194 
-0.653947 -0.990568 -5.00133 
-2.00229 -1.43009 -4.42462 
-0.074351 -1.40371 -5.49032 
0.149932 1.93973 -6.09257 
-0.33469 0.406862 -5.43519 
0.277469 -0.791352 -5.17556 
-0.298389 1.44673 -5.57265 
-0.946025 -0.241846 -4.78144 
-0.503356 1.25294 -5.35865 
-0.925465 1.20871 -4.96682 
-0.645665 -0.648082 -5.03551 
0.859591 0.691097 -6.1828 
0.409206 0.779929 -5.74091 
-0.675836 1.37051 -5.21672 
-1.421 1.0803 -4.6028 
0.135729 0.361203 -5.62388 
-0.153048 1.25623 -5.69582 
0.526963 -0.388837 -5.76916 
-0.931225 0.451279 -4.87721 
-1.8324 1.30764 -4.80193 
2.65994 -0.992136 -8.11396 
0.476272 -1.13442 -4.8241 
1.98141 0.66197 -7.66193 
-1.13186 -0.881805 -4.53624 
1.81736 1.81804 -7.64153 
-0.161551 -1.21548 -4.74854 
-0.748849 -1.1087 -4.88684 
0.412858 1.00892 -5.73489 
0.370523 -0.707123 -5.33535 
0.0694499 -0.667975 -5.0509 
0.240133 -0.883472 -5.04944 
1.04925 -0.901897 -4.60125 
0.862116 1.87464 -6.7527 
-1.32095 -0.202215 -4.42246 
-0.529392 0.736073 -5.29419 
-0.817817 -0.79507 -4.85263 
0.0965202 -0.700412 -5.07483 
-0.101904 -0.731798 -4.88753 
-0.995941 1.61489 -4.93285 
-0.759184 -0.261573 -4.95933 
1.24556 2.26786 -7.15289 
0.087523 -1.06824 -4.9991 
0.296491 -0.942901 -5.02538 
-0.598961 0.000302045 -5.13941 
0.691652 -0.834126 -4.59687 
-0.66996 1.74372 -5.26669 
-0.684436 0.324753 -5.09011 
0.871778 -0.447467 -6.08452 
0.135408 -0.730729 -5.08614 
0.105412 -1.13837 -5.02345 
-1.6269 -1.23614 -4.35044 
-0.872207 1.00078 -4.98083 
-0.692637 1.11355 -5.16515 
-0.761948 1.74115 -5.17672 
0.0745392 1.53194 -5.93023 
0.748753 -0.031657 -5.91353 
-0.112352 1.0069 -5.71036 
1.48606 2.39311 -7.35891 
1.89443 1.69867 -7.69275 
0.816205 -0.87994 -5.66414 
-0.858034 -0.140797 -4.87751 
0.617226 1.85472 -6.48672 
-1.30958 -0.729446 -4.38229 
0.137118 -1.16005 -5.05236 
2.60424 -0.395699 -8.16527 
0.928856 2.30148 -6.82649 
-0.957515 -1.16093 -4.68359 
1.46927 1.59876 -7.272 
-0.522139 1.59001 -5.40799 
-1.31772 -0.902646 -4.34691 
0.148519 1.95708 -6.05491 
-0.851924 -1.11352 -4.77444 
-1.25913 -0.602309 -4.46296 
1.80932 1.05336 -7.57132 
0.261783 2.16755 -6.19329 
1.15779 -0.818614 -6.11046 
-1.6474 -1.26685 -4.36037 
-0.853967 -0.647514 -4.84857 
-1.26843 1.25215 -4.63542 
-0.0605507 1.15886 -5.77128 
0.210849 -1.3228 -5.00653 
-0.815495 1.43438 -5.07863 
-0.650938 0.984953 -5.18222 
2.70089 1.21655 -8.32168 
-1.22543 -1.11901 -4.42431 
-0.141977 -0.351719 -5.15779 
-1.31985 -1.19072 -4.25598 
-0.460579 1.69952 -5.42021 
-0.632653 -0.791337 -5.03559 
-0.757431 1.09999 -5.12333 
0.889329 1.93842 -6.78082 
1.07281 1.93209 -6.93432 
0.603841 -0.129294 -5.97387 
0.718876 1.19416 -5.82334 
-0.379583 0.351408 -5.38044 
0.820428 0.340238 -6.16618 
-0.481896 1.82327 -5.44097 
1.75006 2.06459 -7.6009 
-1.29322 1.25815 -4.61075 
-0.806852 -0.415669 -4.88813 
-1.07048 0.448352 -4.7545 
0.831467 -0.257214 -5.8413 
0.155616 1.63886 -6.02573 
-1.03985 -0.143362 -4.70929 
-1.28758 0.325971 -4.51189 
-0.850239 0.711169 -4.96045 
0.69186 -0.833626 -4.59677 
-0.710875 1.74838 -5.22767 
-0.911348 1.749 -5.03483 
-0.705002 1.74273 -5.23433 
-0.846542 0.391601 -4.94631 
0.113596 -1.14512 -5.04915 
1.54973 -0.546876 -6.75856 
0.52935 1.59201 -5.82822 
0.623405 -0.931483 -4.68999 
-1.20081 -0.124328 -4.55165 
2.32287 1.12141 -8.08019 
-0.975151 -0.628254 -4.7356 
0.000861176 1.78595 -5.90904 
-1.09643 0.849089 -4.75815 
-0.581722 1.06746 -5.26069 
2.61721 1.01405 -8.33696 
-0.176917 -1.22365 -4.72694 
2.37793 -0.548493 -7.92617 
1.56807 0.790448 -7.3022 
-0.881962 -0.954264 -4.76789 
0.412698 -0.571129 -5.47442 
0.104023 -1.24541 -5.01098 
-1.00824 -0.448676 -4.71302 
1.93665 -1.26454 -5.32729 
-1.60898 -1.3328 -4.33711 
1.86746 1.54474 -7.66494 
0.695902 -1.25161 -4.53205 
0.610638 0.820747 -5.77334 
2.1145 -0.0941473 -7.7419 
1.69548 -0.898721 -6.59635 
0.419795 0.284021 -5.67497 
-0.692681 -0.465504 -5.01022 
-0.930447 -0.696132 -4.74835 
-1.23328 -1.05813 -4.4316 
-0.983807 0.0406063 -4.78986 
0.0624808 -0.153366 -5.48991 
-0.659388 -0.326738 -5.057 
-0.843241 1.00101 -5.01464 
0.0517318 1.52665 -5.91156 
1.04539 -0.957456 -4.59871 
-1.22989 -0.600575 -4.47065 
-0.530044 1.68648 -5.38645 
-0.674484 -1.13843 -4.94152 
-1.07788 0.617575 -4.74767 
0.427156 -0.54228 -5.52142 
-0.975906 -0.132995 -4.76136 
-0.931617 -0.916993 -4.72595 
-1.27547 -0.881716 -4.39718 
-0.683097 0.289433 -5.08911 
-0.772398 1.23546 -5.1007 
-1.30481 -1.20758 -4.21956 
-0.280508 0.94611 -5.54101 
2.74223 -0.753445 -8.13039 
1.99287 -0.868531 -5.34492 
1.24408 -0.254263 -6.66455 
-0.995113 -1.11189 -4.64304 
-0.360444 0.32231 -5.37617 
-1.31864 -0.882736 -4.35281 
1.61101 2.5038 -7.49913 
-1.19832 -1.08426 -4.43288 
0.278613 0.36542 -5.75406 
-1.10016 -0.174491 -4.66907 
0.752864 -1.09273 -4.59683 
-1.18789 -0.787342 -4.49002 
-0.946245 1.7581 -4.99922 
-1.18485 1.63699 -4.76463 
2.02949 -0.27961 -7.62269 
-0.0439813 -1.37935 -4.78889 
0.906412 -1.1199 -4.58994 
-0.651345 -1.40407 -4.78909 
-0.818815 0.618037 -4.98593 
-0.925303 -0.677775 -4.75146 
2.36015 1.53919 -8.11666 
-1.37232 0.700233 -4.51793 
-1.31899 -0.882675 -4.35511 
-0.674458 1.1051 -5.17615 
-1.25129 1.24823 -4.64678 
-0.675674 1.16514 -5.20294 
-0.00704431 -0.699859 -4.99062 
-1.0458 -0.131538 -4.69914 
0.966018 -1.10999 -4.5861 
0.934533 0.718524 -6.19679 
1.83681 -0.646074 -7.40342 
1.63677 -1.09182 -5.03206 
3.27647 1.79714 -8.64407 
-0.673626 -1.14555 -4.95589 
-0.940374 -0.617996 -4.75745 
-0.728948 -0.176859 -4.99796 
0.773732 1.19353 -5.8772 
-0.312672 1.97274 -5.62387 
-0.784732 -0.469122 -4.93239 
0.371946 -0.936626 -4.94316 
-0.82407 -0.608406 -4.85343 
2.32758 0.911952 -8.08046 
0.543663 -0.65457 -5.52061 
-0.42376 1.83654 -5.49371 
-0.558219 -0.0753208 -5.1618 
-0.632423 -0.736883 -5.03248 
-1.0592 -1.39369 -4.42005 
-0.665908 -1.08856 -4.92629 
0.472909 1.01753 -5.66374 
2.2787 -1.08093 -7.7942 
-0.0820759 -0.925724 -4.85546 
2.71013 -0.549515 -8.13907 
1.98258 0.963535 -7.69274 
-0.569326 0.726094 -5.24258 
-0.740205 1.72655 -5.18655 
-0.584632 1.03099 -5.25923 
-0.661309 -0.700336 -5.02192 
-0.206533 0.51496 -5.571 
-0.913646 -0.148713 -4.83817 
1.48763 -0.753111 -6.41916 
-0.773886 1.56467 -5.15683 
-0.779127 1.18367 -5.09162 
0.2451 1.61113 -6.12008 
-0.606309 0.990903 -5.23826 
-1.04997 1.61433 -4.89114 
2.27554 2.64986 -8.16625 
0.112473 1.51085 -5.97688 
-1.02957 1.00388 -4.83337 
-0.871268 1.40966 -5.02802 
-1.15506 1.22939 -4.73792 
-1.46262 -0.39723 -4.49527 
-0.308224 1.53053 -5.58789 
-1.27707 -0.753582 -4.4123 
-1.1251 0.443056 -4.69551 
-0.983407 -1.0254 -4.66129 
1.06023 2.27658 -6.94565 
-0.118377 -0.683263 -4.87222 
-0.832687 1.76 -5.11136 
-0.928543 -0.41188 -4.76485 
0.780997 2.38268 -6.71262 
0.0454005 1.79417 -5.94729 
0.750611 -1.09387 -4.59783 
-1.10763 0.11821 -4.66752 
-0.812793 0.616411 -4.9866 
-0.674718 0.20848 -5.103 
-1.21893 -0.750367 -4.47093 
-0.814134 -0.467471 -4.89963 
-0.617087 0.373215 -5.1959 
1.28133 -0.864027 -5.58733 
-0.369414 0.694315 -5.42996 
-1.09491 1.41937 -4.82504 
2.36124 2.77381 -8.26647 
-1.79899 0.976302 -4.77158 
-0.824942 1.74893 -5.11332 
-0.726926 1.17981 -5.14492 
-1.36746 -0.359448 -4.40671 
-1.90533 -1.10743 -4.63106 
-0.0452679 -1.09973 -4.88552 
0.386131 -1.09998 -4.91973 
-0.943933 1.6378 -4.98402 
-0.934801 0.472428 -4.86397 
-0.604504 -1.02971 -5.03456 
1.06594 -0.891479 -5.90471 
-0.439516 1.69833 -5.49138 
-0.692096 1.41877 -5.19437 
0.666584 0.123313 -5.9995 
0.892861 1.18632 -5.96881 
-0.156276 1.2956 -5.69503 
-0.60924 1.00099 -5.2497 
-0.653856 0.197118 -5.11195 
1.90253 2.10227 -7.75068 
0.0456223 1.48537 -5.8968 
-0.547229 -0.494034 -5.1495 
-0.755386 -0.470971 -4.96127 
-0.896838 0.802314 -4.94533 
-0.579124 1.06847 -5.27584 
2.36103 1.77006 -8.14046 
-0.158394 1.48184 -5.717 
-0.192785 1.58631 -5.69238 
-0.687118 0.30784 -5.09094 
2.35006 0.783039 -8.0901 
-0.847766 -1.09554 -4.77772 
0.625334 -0.926022 -4.68141 
1.62028 -0.870527 -6.52951 
0.706229 -0.915371 -4.61262 
1.7052 0.786026 -7.42466 
-0.166836 -1.26912 -4.67793 
0.521284 0.374776 -5.83902 
-0.873388 1.00207 -4.98314 
0.30411 1.08657 -5.65142 
0.269874 2.13096 -6.18335 
-0.672817 1.47426 -5.20618 
-1.16834 0.629559 -4.66832 
0.12728 2.03557 -6.0513 
0.760797 -0.931894 -4.61037 
1.00343 1.99615 -6.86466 
-0.90189 -0.412146 -4.79412 
2.34131 1.57711 -8.13752 
2.21842 0.780813 -7.94304 
0.648712 -0.173911 -5.95758 
1.73086 0.883172 -7.46978 
0.2672 -1.14856 -5.03605 
-0.552136 0.244734 -5.20451 
-1.02901 -0.441944 -4.70199 
1.56941 1.54481 -7.3624 
-0.303548 1.03318 -5.53254 
0.474617 0.172013 -5.73689 
0.472897 0.675094 -5.66546 
1.13698 0.00091231 -6.5687 
-0.741194 1.72599 -5.18649 
0.583924 0.474553 -5.90288 
-0.151015 -0.430774 -5.13569 
0.527207 1.31459 -5.60452 
-1.31652 0.651735 -4.52362 
-0.955967 -0.149464 -4.77454 
1.48908 2.15466 -7.4103 
-0.265996 1.69492 -5.64326 
-0.181864 1.52718 -5.66766 
-0.666848 -0.770382 -4.98785 
-0.762464 -1.14521 -4.89066 
0.249971 1.92826 -6.14032 
2.19821 0.941907 -7.91764 
-0.656931 -0.0134621 -5.09102 
-1.106 0.133083 -4.66462 
-0.454988 0.711611 -5.33736 
1.84053 0.130364 -7.50424 
0.346946 -0.700761 -5.33308 
-0.462192 0.376279 -5.30872 
0.886503 -0.779324 -5.83756 
2.0591 1.843 -7.8643 
2.12505 0.946692 -7.86176 
0.13741 -0.966282 -5.06827 
-0.916121 0.966481 -4.93027 
2.34918 -0.776817 -7.89273 
-1.05714 -0.45028 -4.66548 
-0.0921784 -0.838773 -4.80766 
0.500983 1.89906 -6.2964 
0.963475 0.850867 -6.10838 
-0.202687 0.867626 -5.60364 
1.27042 -1.05607 -4.67744 
1.60847 0.128734 -7.29881 
1.73128 1.94114 -7.58898 
2.17687 0.911696 -7.9125 
1.72535 1.49487 -7.50175 
-0.980943 -0.205695 -4.74253 
-0.144367 1.27995 -5.71142 
-0.83682 -0.14969 -4.90456 
0.713621 0.0499076 -6.00424 
0.216573 1.94794 -6.11886 
-0.656655 -0.32611 -5.05264 
-0.582497 1.76455 -5.3391 
-0.541337 -0.328461 -5.17957 
-0.0546896 1.23509 -5.81611 
-0.122226 -0.707037 -4.85249 
-0.881343 -1.19131 -4.74514 
-0.247797 1.03763 -5.58675 
-1.05701 1.54808 -4.86125 
-0.897966 1.72088 -5.03556 
-1.08696 0.636108 -4.7421 
-0.340146 1.52767 -5.53936 
-0.855265 -0.926024 -4.80968 
-0.539884 1.90679 -5.4053 
0.637505 1.21915 -5.71949 
0.655885 -0.0711257 -5.89629 
-0.966034 -1.17864 -4.63986 
0.925931 -0.0277334 -6.19761 
0.810633 -0.782431 -5.76558 
-1.29422 -1.20533 -4.24186 
-1.33713 0.0521059 -4.44151 
-1.0872 0.635847 -4.75013 
2.36001 0.736096 -8.06184 
0.680327 -0.678448 -5.64853 
-0.269627 0.844025 -5.53268 
1.52608 -0.899635 -6.44153 
-0.119431 1.64702 -5.77825 
0.86195 2.18401 -6.75091 
2.62114 2.23033 -8.44086 
-0.731527 -0.230138 -4.97964 
1.12362 1.80822 -6.97646 
-1.03964 -1.14974 -4.59806 
-0.104947 0.0732867 -5.06088 
-0.995521 0.91643 -4.85627 
0.431164 -0.647369 -5.41696 
2.69132 2.5837 -8.48236 
-0.892333 -0.932571 -4.78315 
1.00826 1.14408 -6.1188 
-0.794731 -0.954834 -4.85367 
-0.354503 1.02095 -5.49347 
-0.449317 0.9624 -5.38498 
-0.655837 1.82316 -5.28664 
-1.12705 -0.288622 -4.59397 
1.70984 -1.38114 -4.81839 
0.289119 1.97074 -6.18735 
-0.767068 -0.617401 -4.90319 
1.12259 1.13929 -6.18136 
-1.23764 -0.182208 -4.50335 
1.06978 -0.304335 -6.44571 
-0.0866897 -0.362209 -5.34884 
0.553647 0.360649 -5.80122 
2.17175 -0.0413438 -7.80824 
-0.681748 -1.13339 -4.95378 
-1.17978 -1.04722 -4.47439 
-0.887671 -1.16476 -4.74527 
-0.282118 0.686051 -5.5241 
-1.24302 -0.295662 -4.49134 
-1.50388 -1.39448 -4.23209 
-1.17436 -0.138148 -4.56994 
-0.840234 0.75843 -5.01203 
3.53437 1.78278 -8.29332 
0.735972 0.603487 -6.06128 
-1.28686 -1.07452 -4.36347 
-1.70856 -1.16238 -4.41536 
2.04343 0.601617 -7.74758 
-0.161103 1.84584 -5.75739 
-0.136097 1.33875 -5.71564 
-0.872045 1.41037 -5.03118 
-0.654133 -0.0107558 -5.09471 
-1.22187 0.250906 -4.56487 
1.49936 -0.583209 -6.69018 
2.00834 0.769935 -7.7335 
0.527445 -0.923586 -4.79337 
1.50074 1.74288 -7.34435 
1.83899 2.2323 -7.7175 
-1.18628 -0.615692 -4.5238 
0.466297 1.07018 -5.72724 
-0.436014 0.504491 -5.337 
0.0288165 -1.17656 -4.94554 
0.749641 -0.702151 -5.7134 
0.250939 -1.27167 -4.97787 
-1.45491 -0.477008 -4.47366 
-0.897132 -0.233759 -4.82593 
-0.66704 -0.502599 -5.01369 
-0.777562 1.77416 -5.16585 
1.87204 -0.617127 -7.46655 
2.32905 -0.786629 -7.86991 
-0.199364 1.9576 -5.73558 
1.35427 -1.07192 -4.77473 
-0.418509 1.05675 -5.41832 
-0.778017 -0.932011 -4.90425 
0.930137 -1.02382 -4.59781 
-1.01636 -0.853541 -4.64657 
-0.618994 0.970766 -5.22036 
2.46117 2.53172 -8.29268 
-0.694968 -0.312982 -5.03229 
-0.836831 -0.940427 -4.8325 
-0.734583 -0.388039 -4.96371 
-0.463254 -0.427491 -5.2181 
-1.37386 1.14872 -4.58338 
-0.819385 -0.313613 -4.89211 
0.110398 -0.951053 -5.04361 
-1.23566 0.49624 -4.57325 
-1.23148 -0.239053 -4.49246 
-0.839716 -1.18247 -4.78254 
0.17623 0.0170446 -5.6315 
0.0653028 -1.07211 -5.01747 
-0.857821 1.19782 -5.01668 
0.274698 1.01 -5.62918 
-0.274822 1.30729 -5.58272 
-0.929978 -0.63173 -4.77294 
-0.0224631 -0.529683 -5.10665 
-0.772136 -0.941856 -4.91019 
-1.1179 1.05201 -4.74656 
1.93857 -0.937074 4.79374 
-0.978891 -1.10449 -4.66405 
0.257837 -1.36878 -4.94905 
2.36496 -0.91021 -7.91106 
-0.768934 -0.942999 -4.90401 
0.941431 -1.05131 -4.59745 
-0.163981 -0.442155 -5.14911 
1.0166 1.99348 -6.90633 
3.79365 2.46344 -8.47314 
-0.318286 0.478129 -5.44697 
-0.56487 -1.00901 -5.02851 
-1.34046 -1.20993 -4.17398 
-1.09557 0.201879 -4.66085 
-0.870044 -0.933691 -4.84487 
0.359388 2.13566 -6.26864 
-1.33989 0.0715656 -4.44516 
-0.818558 -0.365978 -4.88265 
-1.0843 1.53435 -4.83683 
-0.781976 0.638645 -5.0203 
-0.539007 1.82069 -5.37676 
1.50805 2.38743 -7.40735 
-2.98666 1.69477 -5.68376 
0.86 2.23349 -6.77077 
-0.627868 -0.707788 -5.03784 
0.49082 -0.0542639 -5.75507 
-0.448104 0.396391 -5.3144 
-0.0357357 1.80227 -5.86492 
0.240397 1.76834 -6.13884 
-1.0404 -0.915107 -4.6401 
-0.932453 -0.659141 -4.75226 
2.35333 1.0909 -8.09323 
0.134512 1.93716 -6.04867 
0.264075 -0.963603 -5.04348 
-0.655259 1.56626 -5.2655 
2.05061 0.426443 -7.72506 
0.939906 -0.374323 -6.18228 
-0.855418 -0.506139 -4.83482 
-0.319524 1.08064 -5.53901 
0.951728 -1.04655 -4.59389 
-0.807442 -1.08054 -4.83381 
-0.696996 0.058305 -5.05225 
-0.505336 0.383743 -5.34436 
0.00177642 -0.187839 -5.4505 
1.00945 0.72316 -6.23275 
1.92672 -0.952907 -5.40163 
0.913059 -1.06377 -4.59183 
-1.12119 0.0469564 -4.65413 
0.822728 -1.11109 -4.596 
-0.19455 0.897568 -5.61674 
-0.533635 1.08548 -5.31464 
0.487212 1.224 -5.62846 
-0.555787 -0.67049 -5.11627 
-0.586262 0.284067 -5.17584 
0.62102 -0.0563264 -5.92504 
-0.549355 -0.658112 -5.126 
-0.723089 1.69273 -5.19579 
-1.46299 -1.15187 -4.40393 
-0.575343 -1.12768 -5.06146 
-1.01276 1.40716 -4.89737 
0.594754 -1.10251 -4.69993 
0.26523 -0.526652 -4.01844 
0.149618 0.349481 -5.64547 
-0.897892 -0.255349 -4.82544 
0.806639 1.19581 -5.88134 
-0.881957 -0.631631 -4.81725 
1.19011 -1.24905 -4.51399 
-0.948621 0.0357747 -4.82024 
-1.15436 -0.107456 -4.59177 
-0.875 -1.0971 -4.75912 
1.18112 1.13415 -6.24958 
0.31698 -0.696408 -5.2901 
-0.90476 1.3835 -5.00285 
-0.95304 1.51006 -4.95341 
-0.474415 0.928807 -5.35413 
-0.352719 1.44336 -5.52527 
1.66697 1.90088 -7.50998 
-1.13364 -0.747102 -4.54551 
-0.446366 1.07192 -5.40169 
-1.14252 -0.20162 -4.60754 
-0.837262 0.029277 -4.92399 
-0.833168 1.16027 -5.03266 
-1.11795 0.105845 -4.65603 
0.806565 -0.95703 -4.60685 
-0.664147 -0.934189 -4.98714 
0.8178 0.445112 -6.1202 
1.17983 -1.20152 -4.55122 
-0.699913 -0.329834 -4.99734 
-0.575454 1.39956 -5.31967 
-0.868471 -0.788009 -4.79619 
1.51449 -0.867065 -6.4371 
1.68973 -0.864786 -6.60839 
-0.600457 -1.10122 -5.03304 
-0.110299 1.42749 -5.7428 
1.80508 1.11463 -7.57058 
-0.967401 1.74848 -4.97914 
-1.00041 1.60489 -4.9273 
-0.636684 0.619426 -5.17312 
-0.137857 1.54567 -5.74483 
2.02499 -0.0816465 -7.63919 
-0.640912 0.0980653 -5.10705 
-0.832619 0.969771 -5.04093 
-0.622073 1.12226 -5.21863 
1.19911 -0.100689 -6.61837 
-0.560727 1.88226 -5.38482 
-1.23748 0.227801 -4.54708 
0.153004 -1.29121 -4.98673 
-0.895308 -1.27247 -4.60669 
0.198138 1.52212 -6.01812 
-0.858481 1.30494 -5.03655 
0.249473 2.05293 -6.17017 
-0.104547 -0.857968 -4.77084 
-0.871482 -0.65085 -4.83031 
0.657627 -0.0447371 -5.89937 
-1.05259 0.817396 -4.80242 
-0.615463 0.226202 -5.15045 
0.482041 0.995612 -5.68537 
-0.0872339 -0.698274 -4.90061 
-0.944086 0.0898262 -4.82913 
