ply
format ascii 1.0
comment VTK generated PLY File
obj_info vtkPolyData points and polygons: vtk4.0
element vertex 1725
property float x
property float y
property float z
element face 0
property list uchar int vertex_indices
end_header
3.71909 -1.07637 -9.5447 
0.223929 0.969885 -6.66819 
0.579694 2.14684 -7.36905 
-1.91348 -1.72699 -5.01856 
0.851513 -0.471454 -6.64577 
4.69154 2.90175 -10.0431 
0.660543 -0.15209 -6.90875 
0.754323 -0.155154 -6.90759 
4.70465 2.63125 -10.0547 
0.40395 1.65137 -6.81682 
4.38866 2.20459 -9.96105 
0.665632 0.00662784 -6.99838 
-2.29878 0.485286 -5.66929 
1.10229 2.2736 -7.89144 
4.63751 2.6013 -9.91995 
3.76654 -2.02292 -9.56823 
1.07065 2.28342 -7.89101 
0.810702 -0.439917 -6.77217 
0.751518 -0.154888 -6.90993 
0.619267 2.16536 -7.4147 
0.608373 2.26501 -7.41834 
0.70065 2.2223 -7.49043 
3.76176 -1.98837 -9.55307 
0.309593 1.65846 -6.70622 
-1.90781 -1.63922 -5.02967 
4.61966 2.3738 -9.95281 
0.82539 -0.423528 -6.76979 
2.69421 1.96298 -9.07516 
0.454646 2.24734 -7.28198 
1.60809 0.803528 -7.58939 
-2.17889 -1.78281 -5.06244 
2.05452 -0.148535 -7.84699 
0.559583 -0.463385 -6.84276 
0.918194 -0.478423 -6.80862 
0.860384 1.52175 -6.95359 
1.12624 1.80884 -7.2777 
0.837476 -0.452526 -6.77466 
0.857901 -0.917318 -6.71411 
3.75642 -1.30457 -9.63371 
0.601451 -0.469644 -6.78068 
1.06331 0.582778 -7.22084 
2.05212 -0.17529 -7.8271 
0.671598 1.85912 -6.99118 
0.611375 2.15289 -7.44356 
3.68688 -1.96933 -9.51191 
0.857206 -0.478421 -6.76601 
2.00026 -0.140791 -7.83152 
0.534368 2.16249 -7.37267 
-0.973556 1.01911 -6.22141 
0.847005 -0.327845 -6.91379 
-0.115922 -0.322087 -6.46803 
1.72503 -1.04953 -7.39738 
4.79927 2.75004 -10.1816 
0.381322 -0.63538 -6.65626 
0.281266 1.52636 -6.66031 
1.32503 1.26645 -7.28616 
-1.4218 1.76747 -5.93121 
4.39261 2.13401 -9.96122 
-1.42147 1.04646 -5.84622 
-2.43535 0.942908 -5.76477 
0.793806 0.26318 -6.99612 
0.574831 0.9343 -6.73988 
-0.954836 0.334641 -6.15621 
0.678974 0.262511 -6.94277 
-1.90413 -1.64362 -5.02581 
2.16198 0.0686767 -8.53425 
0.786418 -0.152227 -6.90951 
-0.436061 0.0469321 -5.91973 
0.867662 -0.0427487 -6.99452 
-0.958542 1.00247 -6.23695 
-0.494052 -0.574745 -5.98135 
0.871849 -0.391796 -6.82435 
1.0886 1.82437 -7.23174 
0.837489 -0.482044 -6.76584 
-0.476245 -0.517613 -6.00482 
0.493636 0.917975 -6.67463 
2.71526 -1.1842 -8.84951 
0.663112 2.26894 -7.45986 
-1.76605 -1.77468 -5.14508 
0.784582 0.23906 -7.00847 
-0.181829 -0.874337 -5.92369 
0.561709 2.23989 -7.35662 
1.10666 1.81725 -7.24008 
2.69303 1.38722 -9.03204 
-1.409 1.50828 -5.90284 
0.487882 -0.158125 -6.77683 
1.08808 1.82749 -7.23972 
0.90146 -0.911341 -6.76508 
0.550055 1.80609 -6.95679 
-0.437577 0.0488759 -5.92793 
-1.5123 1.04764 -5.7895 
0.591623 -0.938651 -6.50576 
3.69689 -0.834517 -9.56827 
0.404878 0.926519 -6.60605 
-0.436823 1.47326 -6.65395 
-0.0313495 0.959753 -6.34318 
0.539452 -0.924966 -6.47871 
3.79779 -1.93324 -9.53608 
3.69781 -0.834591 -9.56989 
0.398391 1.00834 -6.58102 
3.69109 -1.28391 -9.53099 
3.74908 -1.31096 -9.60442 
3.23003 -0.24406 -9.32732 
0.440179 -0.260375 -6.73586 
3.82861 -2.02243 -9.49229 
0.914586 -0.932675 -6.78237 
3.56339 -2.1722 -8.98688 
-1.13857 -0.866528 -5.90023 
-0.561608 1.89373 -6.61653 
-1.14575 1.2244 -6.08685 
-0.530366 1.87685 -6.62352 
-0.222904 -0.850358 -5.87533 
1.4063 1.27347 -7.5296 
0.57916 2.22405 -7.37769 
-1.55354 -1.19442 -5.53944 
2.61813 -1.17947 -8.77063 
-1.57215 0.587784 -5.6889 
1.54328 1.32678 -7.52382 
-1.02829 -0.923356 -5.97071 
-1.3124 1.52122 -5.97169 
0.719714 -0.315467 -7.00376 
1.64296 1.25348 -8.24078 
-0.158667 1.3635 -6.81131 
1.10267 1.7774 -7.27097 
0.564517 2.19381 -7.35773 
-1.04827 0.0107612 -6.04614 
0.630864 0.962309 -6.80466 
1.61647 -0.656963 -7.8451 
-0.391073 1.40272 -6.68608 
1.14033 1.77945 -7.29195 
-0.399687 1.43234 -6.68056 
-1.68037 1.54127 -5.70084 
2.23611 1.83545 -8.72699 
-1.91207 -1.75824 -5.0239 
-2.30154 0.801023 -5.74562 
-0.0271487 -0.37203 -6.53585 
3.16203 1.56934 -9.41965 
-1.86857 -1.74175 -5.04344 
3.68081 -1.09286 -9.54262 
-1.01301 0.582734 -6.13703 
0.331407 -0.335286 -6.64434 
0.490405 2.18387 -7.32997 
-1.11208 -0.864254 -5.9165 
0.569558 -0.52813 -6.75513 
-0.889499 0.119533 -6.20047 
-1.63729 -0.0319061 -5.56595 
4.5874 2.92399 -9.93538 
-1.68239 1.4864 -5.69478 
-1.11223 -0.0431852 -5.99939 
-1.08191 0.100522 -6.02124 
-1.11257 -0.864476 -5.91809 
-1.71225 -1.45606 -5.36138 
2.62243 1.07823 -8.94748 
0.467178 0.0788459 -6.73577 
0.333658 0.0380061 -6.67024 
0.695717 -0.531091 -6.76459 
-0.436514 -0.823479 -5.72487 
0.796091 0.22542 -7.04104 
1.06906 -0.596014 -7.19793 
0.0452501 -0.589366 -6.58908 
3.67215 -2.1615 -9.40529 
2.01935 2.33234 -8.60839 
-0.167629 -0.0891035 -6.4533 
3.83198 -1.97025 -9.45824 
0.761268 0.71115 -7.05244 
0.0307918 -0.080197 -6.6166 
3.15623 1.791 -9.41949 
-1.89138 1.36286 -5.50343 
-0.00922208 0.154082 -6.52112 
0.20201 2.04414 -7.19367 
-0.0369475 -0.0237488 -6.56075 
1.98092 0.714926 -8.44634 
0.330245 0.911162 -6.68364 
-2.39187 1.34806 -5.8295 
1.14035 1.77932 -7.29051 
-0.973704 0.139056 -6.14107 
1.13045 2.27156 -7.90273 
0.899564 -0.496255 -6.85085 
-1.99708 -1.59402 -4.9905 
-0.109076 -0.977758 -5.96835 
-0.430578 -0.523039 -6.06051 
-0.0775748 -0.512175 -6.49874 
-0.0711719 -0.0730552 -6.54177 
0.52516 0.868499 -6.72939 
1.41104 0.0236914 -7.6106 
0.700369 0.0225305 -7.0136 
0.384191 -0.255855 -6.68835 
3.68223 -1.03808 -9.54536 
-0.0271931 0.127126 -6.55008 
-1.68562 0.18515 -5.55545 
0.527059 2.16254 -7.37312 
-1.19278 1.19626 -6.05839 
0.498685 0.944303 -6.66505 
1.40394 0.072654 -7.65505 
-1.60159 -1.49398 -5.44074 
1.07113 -0.708324 -7.19585 
3.62941 -1.19252 -9.57679 
0.877796 -0.568199 -6.90509 
-1.42258 1.51896 -5.89015 
0.269498 -0.889612 -6.30319 
3.79904 -1.80847 -9.47716 
0.334642 0.961818 -6.66944 
-1.46633 -0.30546 -5.68559 
2.09506 2.62303 -8.68718 
-0.0748874 0.40074 -6.54693 
0.483333 2.14671 -7.42279 
-1.66825 -0.645023 -5.48716 
-0.818686 1.88774 -6.41367 
-1.42246 -0.926183 -5.64452 
0.378633 -0.521803 -6.66669 
0.711766 0.559605 -7.00545 
-1.16705 -0.435967 -5.91 
-0.0953052 0.368765 -6.4988 
0.388224 0.968647 -6.60643 
-1.82368 -1.40639 -5.27432 
3.82273 -2.04942 -9.53644 
-0.05752 -0.196839 -6.51837 
0.401439 0.95238 -6.5965 
0.732461 -0.28764 -6.99166 
-0.306719 -0.571449 -6.31236 
-0.073401 -0.964413 -6.00322 
-1.10044 1.76679 -6.17916 
-1.64939 -0.640164 -5.49131 
-1.40222 1.38267 -5.89847 
0.150525 -0.215132 -6.69808 
-0.983471 1.50659 -6.25624 
0.681755 -0.484685 -6.80796 
1.0006 1.47478 -7.09533 
-2.46155 1.22206 -5.7756 
-1.95194 0.430746 -5.38429 
0.377166 0.841302 -6.66769 
-1.01062 -0.124371 -6.06028 
-1.10792 0.00718531 -5.99702 
-0.463706 -0.0759785 -6.05441 
-0.169307 -0.965634 -5.93777 
0.373086 1.58188 -6.75263 
1.12792 -0.32264 -7.26891 
0.222278 0.222565 -6.7545 
3.07374 0.399044 -9.25447 
0.52322 1.70246 -6.89181 
4.36542 2.16048 -9.9917 
0.666109 -0.314201 -6.99999 
0.613499 1.71399 -6.9873 
2.74003 -1.15392 -8.86352 
-2.44895 -1.27865 -5.44908 
0.712119 -0.173921 -6.89971 
1.0212 -0.596913 -7.16493 
-0.859915 -0.127601 -6.18472 
0.467895 1.68795 -6.85857 
-0.816232 1.9047 -6.39447 
0.682291 0.52217 -6.98147 
-1.62936 0.178144 -5.60122 
0.649968 0.511492 -6.96072 
-1.33056 0.15378 -5.84343 
3.71502 -1.98853 -9.50359 
-0.943601 0.0967713 -6.14513 
-0.849244 -1.62564 -5.99863 
-1.67037 -0.0210094 -5.55249 
0.854156 -0.452607 -6.76242 
-1.59554 -0.638376 -5.54632 
-1.6282 0.178018 -5.59616 
-0.0956654 -0.370335 -6.47903 
-1.65446 1.53258 -5.71881 
-0.250439 1.29507 -6.78591 
-0.0429537 0.879636 -6.40789 
3.70391 -0.654406 -9.59906 
2.60441 -1.07114 -8.77775 
-1.12185 -1.2664 -5.86743 
2.44108 -0.546357 -8.71684 
3.84125 -2.03438 -9.44298 
2.58926 -0.961378 -8.7843 
1.57606 0.901993 -7.67635 
-2.44114 -1.33252 -5.44188 
-0.914134 -0.121615 -6.13153 
-2.47017 -1.34868 -5.4386 
0.507447 2.2557 -7.32466 
-1.09772 0.0286698 -6.00017 
0.136454 2.20038 -7.16209 
-0.823951 1.88715 -6.41246 
2.11966 -1.07392 -7.65441 
1.41066 -0.211484 -7.65245 
-1.65935 0.596064 -5.61641 
1.85247 -1.03822 -7.47868 
0.493897 0.966812 -6.66094 
1.29461 -0.447591 -7.55122 
-0.38586 1.41792 -6.67934 
-0.407793 0.951291 -6.62165 
-1.16332 -1.48829 -5.81067 
-1.16312 0.779205 -6.03655 
-1.53386 -1.49482 -5.49202 
0.603939 2.20816 -7.39894 
3.80797 -1.81787 -9.50951 
-2.32528 -1.6004 -5.27098 
-1.14462 -1.25001 -5.85377 
2.54298 0.437477 -8.84831 
0.209569 -0.909975 -6.24254 
0.74465 0.53323 -7.03553 
0.388936 0.0847453 -6.69604 
-0.0399309 -0.986614 -6.02977 
-0.513604 1.20667 -6.57541 
-1.17987 -0.337008 -5.9109 
-0.0328724 -0.0530209 -6.57036 
-2.2731 0.968805 -5.75747 
1.09009 0.886936 -7.12928 
-1.4567 -1.48325 -5.57548 
-1.11952 -1.50718 -5.87932 
2.87979 -0.0179762 -9.07433 
0.809277 0.514922 -7.08692 
-1.77526 -1.01729 -5.35808 
0.161166 -0.889934 -6.18579 
2.96248 -1.30787 -9.03936 
-2.00856 -1.55543 -4.99527 
0.490453 -0.3496 -6.76435 
0.542455 0.952148 -6.71072 
0.779219 0.526628 -7.05573 
-1.13687 -0.720037 -5.8847 
-1.30836 0.37319 -5.8866 
-2.44299 -1.33708 -5.44813 
0.412754 -0.496341 -6.68872 
-1.12911 0.153159 -6.01013 
3.76775 -0.827543 -9.55319 
0.671394 2.20677 -7.52618 
-0.665015 0.692793 -6.39524 
1.94515 0.967475 -8.44347 
-1.64841 1.52898 -5.71615 
3.75311 -0.8333 -9.53222 
1.58549 1.71392 -8.22272 
-0.803878 0.525405 -6.28294 
-2.24848 -1.53117 -5.32197 
-0.691958 2.01901 -6.50772 
0.311839 1.69264 -6.69959 
-1.06086 1.03931 -6.13772 
-1.22244 -0.806611 -5.8196 
2.74875 0.882208 -9.03369 
1.50748 2.20029 -8.19757 
0.330372 1.67367 -6.69915 
-1.42029 1.79078 -5.9289 
-1.12411 -1.27157 -5.8691 
-1.78293 -1.17882 -5.33735 
-1.70995 -0.29792 -5.48971 
0.648383 -0.487019 -6.76744 
0.133373 -0.382586 -6.66639 
-1.65543 -0.0385068 -5.56058 
-1.57556 -1.20705 -5.49645 
-1.27374 1.1773 -5.97723 
-0.694271 0.725447 -6.38971 
1.29454 2.28992 -8.03912 
-1.38729 -0.341297 -5.73548 
0.443173 -0.148441 -6.74403 
-0.72001 0.315737 -6.33046 
-2.24847 -1.53664 -5.32922 
-1.15167 -1.57356 -5.79253 
0.417061 0.0354361 -6.72427 
0.658531 -0.249868 -6.98403 
0.908264 1.69718 -6.89843 
-1.65785 1.79241 -5.73085 
-0.969662 1.68201 -6.26144 
1.37424 1.08477 -7.5415 
0.608514 -0.492445 -6.73674 
-0.475014 -0.548615 -5.99442 
0.440929 -0.529258 -6.71547 
-1.5213 -1.06165 -5.56333 
-1.52154 -1.06576 -5.56545 
1.38734 1.93203 -8.10561 
-0.981114 -0.980296 -5.99251 
3.77882 -2.03791 -9.46164 
2.30987 2.41531 -8.82642 
-1.1935 -0.6731 -5.88241 
-0.844289 0.10394 -6.20062 
-1.10978 0.0771837 -5.99454 
-0.943415 0.0928351 -6.14683 
-1.97499 -1.61168 -5.04831 
0.630217 0.480203 -6.96692 
-1.31046 0.372711 -5.88093 
-2.4239 1.15674 -5.77703 
0.805235 -0.412444 -6.77767 
-1.10151 0.830824 -6.07633 
1.10284 0.910395 -7.13761 
-2.43917 -1.34526 -5.49587 
1.55208 -0.493136 -7.74805 
-1.25504 -0.661437 -5.81486 
0.567961 1.45413 -6.49453 
0.47431 2.19995 -7.32372 
0.863086 -0.519317 -6.78557 
1.11345 0.0202462 -7.24575 
-1.2895 1.19396 -5.97476 
0.924733 0.683915 -7.17743 
-0.0417935 0.445632 -6.46482 
1.22208 2.35438 -8.00331 
0.48671 -0.54236 -6.74048 
0.690553 1.50737 -6.86595 
1.13817 0.790266 -7.20253 
0.533057 2.24202 -7.33996 
0.682482 0.520462 -6.98156 
1.31533 -0.49927 -7.57634 
-0.986659 -1.46091 -5.94664 
-0.228311 -0.577327 -6.36965 
-0.00523161 -0.519654 -6.54557 
0.62646 0.489401 -6.92491 
-1.33707 0.350137 -5.84271 
-0.99492 0.748399 -6.16557 
-1.04204 0.1375 -6.0693 
0.714816 -1.17373 -6.48915 
-0.455642 -0.558897 -5.98104 
-0.417703 0.0814065 -5.94733 
0.33204 0.310963 -6.56861 
-1.00409 -1.05924 -5.97425 
1.46158 1.24617 -7.58095 
2.71874 0.823273 -9.0233 
2.31501 -0.695864 -8.60582 
1.32602 1.00489 -7.41715 
-0.476687 0.287113 -6.51852 
-1.63797 0.577887 -5.63501 
-1.01397 -1.2886 -5.95419 
-1.26891 -1.09276 -5.75183 
-0.579159 1.36408 -6.53063 
0.13319 -0.577773 -6.63896 
0.195855 -0.909943 -6.22262 
-1.19829 -1.10734 -5.80885 
-1.57217 1.542 -5.78363 
0.27048 0.995364 -6.71949 
-1.58135 -1.06191 -5.51994 
-0.186485 -0.359932 -6.42072 
-0.508062 1.35152 -6.5867 
-0.182846 1.63751 -6.85652 
1.9484 -1.06841 -7.54637 
-1.58091 -1.49277 -5.48306 
0.444574 -0.352577 -6.74575 
3.71381 -1.90551 -9.50981 
0.501162 0.721539 -6.69055 
1.24815 -1.20876 -6.90685 
-0.235441 -0.769721 -6.00409 
0.212784 -1.00258 -6.24174 
-1.25179 -0.659755 -5.80722 
-1.72888 -0.0559654 -5.50939 
-1.18327 -1.14641 -5.82327 
0.850788 -0.0691343 -6.95766 
1.85864 -1.16174 -7.49978 
0.533134 -0.569706 -6.77192 
-0.702805 1.34424 -6.43851 
0.758366 1.3414 -6.81425 
1.3659 0.983365 -7.53735 
1.87837 1.22911 -8.41277 
-0.136441 -0.0661218 -6.47065 
-2.44253 -0.96694 -5.54679 
-1.00998 0.752303 -6.15998 
-1.10756 0.133076 -6.03896 
0.0754417 -0.883513 -6.13925 
-1.57907 -0.32686 -5.58222 
-0.644421 1.9989 -6.54033 
2.71921 0.822538 -9.02442 
-1.14229 -0.68539 -5.92422 
-1.06489 -1.53039 -5.90505 
-0.132301 -1.36243 -5.89911 
0.131417 -0.575299 -6.64229 
-0.00281437 -1.66917 -5.83804 
-0.0904037 -0.861967 -6.00872 
-1.33478 -1.48498 -5.66866 
-0.329169 1.11379 -6.69746 
2.71949 1.07611 -9.02156 
-1.11119 -1.45716 -5.83886 
-1.66513 0.172514 -5.58934 
1.85508 0.986277 -8.395 
-1.35884 1.52487 -5.94714 
3.65568 2.29496 -9.7652 
0.58412 0.477934 -6.89914 
0.599163 -1.03543 -6.5368 
-1.27423 1.04495 -5.98075 
-1.56867 -1.48676 -5.47618 
-0.163784 -0.952882 -5.93315 
0.50565 2.14304 -7.39759 
-1.52798 -1.07636 -5.56545 
0.813635 -0.0642633 -6.99713 
-1.52879 0.83606 -5.75508 
-0.867048 -0.116209 -6.18546 
-1.49563 1.54166 -5.83476 
-1.1415 -1.24337 -5.84739 
2.17961 0.0482046 -8.50718 
-0.963165 1.1703 -6.22158 
3.17787 -0.203702 -9.33289 
0.995454 -0.617447 -7.13743 
-1.11752 0.0444515 -5.99801 
-0.298799 -0.78219 -5.9904 
-0.0371476 2.17593 -7.02593 
-1.39333 -0.324251 -5.75095 
0.892022 0.436005 -7.14659 
-1.70733 1.30362 -5.67072 
0.259547 0.988552 -6.71583 
-0.549205 -0.181062 -6.002 
-0.943171 -0.0923764 -6.11322 
-1.77077 -1.17906 -5.33436 
-0.322427 0.490163 -6.6465 
0.689638 -1.03527 -6.59268 
-1.58095 -1.4962 -5.46635 
0.937462 2.29739 -7.77367 
2.14422 2.64141 -8.70878 
-1.43551 -0.326981 -5.71452 
-1.51932 0.180895 -5.68514 
-1.29043 0.151285 -5.87384 
1.13384 0.920315 -7.17361 
2.34884 -0.473794 -8.63233 
-1.61528 -0.0514567 -5.57964 
-1.27319 1.17564 -5.98051 
-1.42143 0.183382 -5.7717 
2.94888 -0.2131 -9.12459 
1.0532 0.629942 -7.19938 
-0.646244 1.12326 -6.44958 
-1.89132 -0.222179 -5.34989 
0.331943 0.885744 -6.70592 
-0.925786 0.320605 -6.16684 
0.477616 0.523774 -6.70673 
0.995174 0.296034 -7.16786 
2.88578 -0.167633 -9.06747 
-0.97095 0.756954 -6.17583 
3.25106 -0.809912 -9.3037 
0.633319 1.87746 -6.97052 
0.643382 -0.917786 -6.58852 
1.2056 1.10382 -7.27355 
0.743998 0.531204 -7.03284 
2.0034 -1.06254 -7.62514 
-1.39262 -0.0819214 -5.76244 
1.65393 1.70568 -8.27252 
3.12457 2.0134 -9.4527 
-1.76931 -1.01805 -5.36022 
-1.04634 -0.983281 -5.94611 
2.9198 -0.0284379 -9.11355 
2.04752 1.66042 -8.57547 
-2.59888 0.613474 -5.669 
1.07384 2.1454 -7.87087 
-1.57684 -1.03201 -5.51299 
-1.37907 1.26427 -5.90485 
0.889736 1.88827 -7.1149 
0.925511 -0.955703 -6.77425 
-0.0100104 -0.200413 -6.55232 
3.69998 1.37032 -9.62324 
1.55199 0.855336 -7.58349 
-1.7097 1.29813 -5.64593 
0.785979 1.48735 -6.94419 
1.74575 2.23222 -8.36797 
2.36396 0.464136 -8.70887 
0.487318 -0.31218 -6.8239 
-0.100445 0.975204 -6.34365 
1.01085 0.314959 -7.2702 
3.09969 1.02419 -9.32531 
0.12281 0.407573 -6.71514 
0.808134 -0.496701 -6.74634 
0.642629 -0.543622 -6.73328 
1.11704 2.35681 -7.91637 
-0.986694 -0.772595 -6.0096 
-0.967181 -0.959425 -5.99581 
-0.0516199 1.64051 -6.95782 
-0.42065 -0.554024 -6.04607 
-1.00524 -1.33358 -5.94293 
1.88043 0.10342 -8.26144 
2.65879 0.653594 -8.95952 
-1.30855 1.24909 -5.95589 
2.71773 1.36817 -9.04668 
-1.4898 0.813779 -5.77636 
2.47398 0.0456253 -8.76678 
-1.66423 -0.33557 -5.52947 
0.768956 -0.0656383 -7.02839 
2.25073 -1.08554 -7.80582 
-2.44803 1.19219 -5.77623 
-1.13547 1.91459 -6.15062 
-1.51934 0.181531 -5.68612 
-0.321667 1.86307 -6.76964 
1.37535 -0.179592 -7.65606 
0.382927 0.039453 -6.70346 
-0.50582 0.9981 -6.54065 
3.15026 1.74057 -9.41126 
2.91299 1.06784 -9.18254 
-1.11509 -0.625085 -5.9176 
-0.876217 -0.931944 -6.09273 
-1.1674 -0.347954 -5.92894 
-0.153728 -0.875827 -5.95139 
-1.18414 0.781718 -6.01607 
0.758585 -0.468989 -6.77483 
2.4202 0.446406 -8.74869 
0.849067 -0.380166 -6.80427 
-0.466445 1.89949 -6.66733 
0.409806 -0.627113 -6.68225 
-1.16403 1.59482 -6.09677 
-1.47538 1.02045 -5.80494 
-2.29385 -1.61248 -5.23141 
-0.676807 1.32633 -6.46213 
2.04397 -0.214977 -7.82025 
-1.00761 -1.31572 -5.95371 
-2.54797 0.683499 -5.76311 
0.318392 0.94105 -6.69247 
-0.89005 1.93653 -6.3602 
-0.688792 0.720539 -6.39932 
-0.980983 -0.716931 -6.01681 
3.70482 -1.93381 -9.52868 
-1.49024 0.815408 -5.78136 
2.90612 0.414307 -9.13605 
-0.460494 1.33882 -6.62691 
0.460232 -0.539089 -6.73146 
1.65411 -0.99597 -7.33493 
-1.4132 -1.48563 -5.60529 
-0.977248 0.325117 -6.14576 
3.14339 2.14422 -9.44458 
0.28843 2.14514 -7.27246 
-0.0575634 0.75391 -6.44677 
0.756161 -0.372767 -6.79656 
-2.4415 -1.4139 -5.43951 
-1.10987 -1.06639 -5.85461 
1.07291 0.0236866 -7.2237 
-1.07021 -1.46626 -5.87127 
1.60075 1.24549 -8.20385 
-1.04526 1.3928 -6.189 
-1.55615 -0.918203 -5.53935 
-1.19541 -1.5108 -5.79521 
1.25193 1.29733 -7.19589 
1.77942 1.23289 -8.33764 
0.646927 -0.0721511 -6.93654 
2.70406 1.04027 -9.00335 
-1.25717 -1.49964 -5.74286 
3.14296 0.437552 -9.34054 
-1.0281 1.36789 -6.18706 
-1.31535 0.327673 -5.8706 
2.53768 0.0102325 -8.80426 
-1.9139 -0.210329 -5.32497 
-0.805536 0.321673 -6.28424 
0.927416 0.362212 -7.16639 
0.360974 0.291142 -6.55505 
0.838914 -0.950539 -6.73034 
0.5933 -0.479351 -6.74433 
-1.5829 1.5368 -5.76312 
0.803768 -0.136634 -6.91452 
2.24868 2.40552 -8.7779 
-0.944319 -0.103304 -6.11279 
-1.52129 -1.47319 -5.50545 
-1.41643 -0.346884 -5.73052 
-1.14389 -0.491845 -5.90727 
2.93445 1.37016 -9.21551 
0.319162 2.16204 -7.28755 
3.16314 -0.164805 -9.45196 
1.87734 1.23003 -8.41234 
-0.447335 0.986373 -6.61024 
0.981317 0.230628 -7.08895 
0.129212 -0.185708 -6.68168 
0.140194 -0.907349 -6.1749 
0.453687 0.863443 -6.6485 
-0.40363 1.57995 -6.68513 
-2.2567 0.923841 -5.73005 
0.892896 0.39799 -7.17756 
0.458825 1.20111 -6.66525 
2.43914 0.42275 -8.74729 
0.695924 -0.293529 -6.99076 
-1.54528 -1.06883 -5.53742 
-0.0942751 -0.248534 -6.46297 
-1.73353 -0.38194 -5.45647 
-1.4778 0.583866 -5.75938 
0.321157 2.19289 -7.28622 
-0.914888 -1.52692 -6.00708 
-0.119519 0.74984 -6.48698 
0.906641 0.402061 -7.17758 
3.70115 -1.34453 -9.54897 
0.525835 -0.608044 -6.7528 
3.11803 2.43252 -9.45108 
-1.2989 0.340812 -5.88246 
-1.14063 -1.49969 -5.82819 
-0.840583 -1.69627 -5.90713 
-1.25266 -0.699675 -5.78188 
-1.09094 -1.06098 -5.893 
-1.2539 1.42185 -6.01095 
-1.27406 -0.319014 -5.84386 
0.653659 -0.130625 -6.91223 
-1.74266 1.7962 -5.6791 
-1.83422 -1.76593 -5.0715 
-0.826581 -0.858812 -6.1137 
2.36576 1.65511 -8.81533 
-0.980713 -1.08767 -5.9879 
-1.66936 0.155494 -5.58565 
0.550673 -0.746545 -6.68035 
-1.82385 -1.77783 -5.09133 
1.37509 -0.931386 -7.25011 
-1.5792 -0.329849 -5.58435 
2.49087 -1.05127 -8.70941 
1.18409 0.864117 -7.18425 
-1.61132 1.04128 -5.6955 
-0.690039 0.691762 -6.39128 
0.49945 1.47631 -6.57267 
3.24971 -0.90862 -9.3141 
1.09242 0.861168 -7.12687 
0.153084 0.018175 -6.71946 
-0.240083 1.5208 -6.75838 
2.76026 0.439284 -9.0176 
-1.67007 -0.350635 -5.51142 
-1.43927 -0.885388 -5.65474 
-1.48321 -0.314463 -5.66149 
0.0234314 -0.27613 -6.43199 
-0.968015 1.9243 -6.26287 
-1.23656 -1.05931 -5.7821 
0.96865 0.748526 -7.21839 
2.48268 -0.915481 -8.72018 
-0.611331 0.963608 -6.47474 
1.97848 -0.78916 -7.91217 
1.35863 -0.320812 -7.61507 
-0.908065 1.94643 -6.33284 
1.0898 0.737924 -7.17423 
0.840196 0.492753 -7.10783 
-1.24022 -0.323421 -5.8672 
0.307064 1.43439 -6.54982 
1.50738 0.292649 -7.65299 
4.23147 -2.06048 -9.00583 
2.44833 -1.01381 -8.64441 
2.58829 2.19828 -9.0183 
-1.80796 -1.61313 -5.1188 
2.20431 0.904522 -8.63233 
2.42542 -0.698393 -8.67581 
1.93384 2.33773 -8.53957 
0.161586 2.22432 -7.17161 
1.01598 0.24923 -7.09703 
2.41795 0.445958 -8.73847 
-1.462 1.03149 -5.82261 
1.83334 2.03081 -8.42652 
-0.944225 -0.104186 -6.1141 
-1.17009 0.554523 -6.00333 
3.18562 0.436824 -9.33688 
-1.25004 -1.48847 -5.73438 
3.27173 -1.40621 -9.28408 
0.712107 1.37466 -6.74941 
-1.74452 -1.47497 -5.33409 
-1.11131 -0.57944 -5.92996 
0.14178 0.296034 -6.73138 
1.88091 -1.00329 -7.52024 
-0.826677 -0.540684 -6.16954 
-1.06796 -0.497692 -5.98954 
2.64023 0.432403 -8.91652 
-0.868737 -1.16349 -6.03913 
1.79286 -1.10601 -7.43433 
-1.07403 0.77345 -6.1024 
1.72321 1.69289 -8.33167 
3.15349 2.02236 -9.44004 
-0.697868 0.313023 -6.34505 
3.59161 -0.983035 -9.50036 
-1.56111 -1.47356 -5.49239 
0.864604 -1.2182 -6.61138 
-1.15725 -1.54416 -5.79884 
-1.11466 -0.0038857 -6.00235 
1.0773 2.24246 -7.88961 
-0.998042 -0.680616 -6.02207 
2.23649 -1.19455 -7.78986 
1.09572 -0.658582 -7.21504 
-1.60954 -0.643131 -5.54109 
-1.59295 0.17878 -5.64487 
-1.92315 -1.61733 -5.02434 
2.74508 -1.28267 -8.87136 
-0.945197 -0.883942 -6.02978 
-1.1342 0.00247863 -5.9834 
-1.5791 0.880006 -5.70749 
-0.916296 -1.42384 -5.99351 
-1.65339 -1.4514 -5.38882 
1.28141 1.01784 -7.28852 
0.318797 0.976718 -6.70167 
-1.31674 -1.50458 -5.67461 
-1.01675 1.71313 -6.23177 
-1.89351 -1.00719 -5.26829 
-0.761692 1.35821 -6.40298 
4.37267 -2.13945 -9.24386 
-0.658659 0.293193 -6.35711 
-0.672193 1.12211 -6.44641 
-1.3333 -0.741704 -5.7574 
2.654 2.77427 -9.11382 
-0.0546929 1.72707 -6.96375 
3.93021 -2.13565 -9.45105 
2.38424 2.13508 -8.85821 
-0.427815 1.64793 -6.6716 
-1.99866 -1.61345 -4.97721 
2.24338 1.2028 -8.73125 
-0.928224 -1.34746 -5.99007 
-0.963201 1.95522 -6.30877 
-1.30723 1.22823 -5.94712 
-0.920422 0.152127 -6.15069 
0.184571 1.00803 -6.62252 
3.15452 1.1784 -9.44712 
2.2457 1.19124 -8.70182 
2.87372 1.75733 -9.19131 
-1.7113 -0.068306 -5.52256 
1.06418 1.79474 -7.26237 
-1.30557 0.801069 -5.91318 
-1.83878 -1.41445 -5.26163 
0.929522 0.320366 -7.16627 
0.889209 0.0251705 -7.10326 
-1.42457 -0.285546 -5.7221 
-1.91457 -0.209743 -5.32575 
-1.50143 -1.05484 -5.58513 
-0.907556 1.9538 -6.33453 
-1.65282 0.143225 -5.58687 
2.50207 -0.174184 -8.78169 
-1.45621 1.52079 -5.87236 
-0.146882 -1.43328 -5.87696 
-1.34872 -1.42655 -5.6539 
-1.01852 -0.947847 -5.97524 
1.10761 0.765192 -7.17814 
-1.1701 -1.55919 -5.78692 
-1.39439 -0.920957 -5.67025 
-1.09914 1.26399 -6.12905 
0.062562 0.726465 -6.51611 
0.0809463 0.340789 -6.66373 
-0.901713 -1.51247 -6.01938 
-1.18753 1.465 -6.07395 
0.86751 2.35749 -7.73408 
0.369785 2.17508 -7.30709 
0.638094 2.17753 -7.42775 
-0.206135 1.87784 -6.87206 
3.1548 1.4197 -9.42904 
2.39261 -0.171966 -8.69557 
-1.83209 -1.43569 -5.27275 
3.27949 -1.36759 -9.25708 
-1.10983 1.2197 -6.09982 
-2.47942 -1.42249 -5.46096 
-1.8749 -1.51525 -5.17612 
-1.44485 1.53029 -5.87766 
-1.1434 -1.56714 -5.83545 
-1.36911 -0.0710758 -5.78444 
2.57751 1.96715 -8.99573 
2.2647 2.38368 -8.78965 
-1.64413 -1.50446 -5.46777 
-1.21371 0.0325269 -5.91551 
3.67431 -0.809552 -9.56106 
-0.851803 1.76329 -6.36148 
-0.945097 1.97322 -6.30527 
1.08875 0.736619 -7.17021 
1.40832 -0.0968859 -7.68805 
-0.999222 -0.927404 -5.98474 
-1.79618 -1.42436 -5.28999 
1.058 0.652947 -7.16514 
-0.919472 0.146228 -6.1547 
-1.09303 1.5544 -6.14754 
-2.431 -1.38245 -5.44009 
-1.11349 -1.40193 -5.84012 
0.00576765 0.341516 -6.60124 
-1.31508 -0.66722 -5.77257 
1.05811 0.0438298 -7.21355 
2.93701 0.878046 -9.18565 
-2.45982 0.0243885 -5.65472 
-2.46198 1.49781 -5.77822 
-1.25635 -1.50787 -5.72941 
1.60437 2.05839 -8.24334 
-1.9067 0.284376 -5.38727 
-0.821676 -0.724525 -6.15654 
-1.59091 1.54126 -5.76571 
-1.1359 0.00330228 -5.98485 
-0.998919 1.06076 -6.19896 
1.74091 0.481072 -8.24533 
-1.60912 1.78654 -5.76725 
-1.59735 -0.311181 -5.57217 
-0.267983 -0.898526 -5.86005 
-0.385225 -0.951491 -5.75961 
-0.912868 -0.161759 -6.14553 
-1.37869 -1.47079 -5.63782 
-0.235625 -1.35413 -5.82139 
-0.227107 -1.26273 -5.82638 
0.598508 -1.0234 -6.53214 
-1.90628 -1.57207 -5.05228 
0.0877381 -1.63783 -5.88571 
-1.22866 -1.47584 -5.75433 
1.2254 -0.987757 -7.01917 
-1.63878 0.133847 -5.58364 
-1.55527 0.562137 -5.68708 
1.81601 0.321417 -8.30375 
-0.689391 0.692957 -6.39103 
1.5737 2.25458 -8.24577 
0.582604 0.900972 -6.7345 
2.73309 2.76179 -9.1616 
0.508112 1.67119 -6.89217 
1.311 -0.994778 -7.07121 
0.109274 -0.554628 -6.62772 
1.13248 2.24237 -7.91162 
-1.67825 1.07045 -5.64951 
3.16462 1.42306 -9.45502 
-0.567033 1.92823 -6.59333 
-1.64355 1.50842 -5.70528 
1.9711 0.303742 -8.40555 
-0.169479 -0.914985 -5.92862 
-1.58661 0.861634 -5.72092 
-1.33259 1.06281 -5.91426 
-1.36135 -1.66371 -5.49796 
-1.19689 1.32206 -6.05005 
-1.52921 -0.617413 -5.59774 
3.6787 -1.40127 -9.56169 
-1.11141 0.779857 -6.08274 
-1.35853 -0.329964 -5.77092 
1.75974 -1.12995 -7.42492 
0.405762 0.798944 -6.63658 
-0.552871 0.776321 -6.51268 
-2.4467 -1.24833 -5.44834 
0.413258 -0.113854 -6.71742 
0.130883 2.02631 -7.13807 
-1.28533 0.811289 -5.95165 
-1.86683 -0.429292 -5.33389 
2.70389 1.0416 -9.00308 
-0.464795 1.13389 -6.59282 
-1.67439 1.159 -5.65133 
-1.87205 -1.51737 -5.17394 
-0.546978 0.897176 -6.51933 
-1.02662 -1.37259 -5.91996 
2.53038 -0.865168 -8.75641 
-0.927566 1.95862 -6.31631 
2.93244 0.40313 -9.13893 
1.87614 2.49782 -8.51697 
-1.35273 -0.761656 -5.75723 
0.135448 1.94967 -7.13125 
-2.19599 -1.52739 -5.43272 
-1.89893 0.281131 -5.37651 
-0.740963 1.74922 -6.44902 
-1.51158 -0.662586 -5.61494 
2.99334 0.880713 -9.24133 
-1.39664 1.39655 -5.90325 
-1.92819 -1.19976 -5.1997 
-1.29733 0.592597 -5.88912 
-1.1074 1.21845 -6.09922 
-0.418175 2.07588 -6.72516 
-1.55164 -1.52314 -5.47845 
0.0481369 2.06403 -7.06955 
-0.228275 1.47475 -6.80715 
0.864512 -1.1771 -6.61047 
3.74118 -1.8892 -9.4996 
-0.624407 1.67285 -6.50498 
-0.755381 -0.981955 -6.00713 
0.726804 1.49461 -6.90578 
-1.42737 -0.647899 -5.66923 
-0.0547713 -0.401977 -6.50762 
-0.814578 1.76863 -6.38818 
-1.68171 -0.440774 -5.51026 
-1.15741 -0.641981 -5.88297 
3.19237 2.09004 -9.46899 
-1.6443 -1.01973 -5.45912 
2.32137 -0.321613 -8.43195 
0.311441 1.63616 -6.73578 
-1.24138 -0.495936 -5.83832 
0.651025 1.15913 -6.85098 
-1.26288 -0.563992 -5.80757 
-0.548484 -0.278565 -5.97387 
-1.27131 -1.45185 -5.69809 
-0.36768 1.43732 -6.70705 
0.367027 0.976791 -6.63846 
0.709311 0.638837 -7.01469 
-1.30327 -0.900971 -5.76338 
1.40138 2.09443 -8.10826 
-1.29925 -0.636688 -5.77326 
-1.05852 1.94231 -6.21922 
-2.22633 -1.73752 -5.09104 
-2.45104 -1.37723 -5.43532 
-0.344327 1.44082 -6.72116 
-0.143801 -1.40593 -5.87478 
-1.21992 -0.0904162 -5.92302 
-1.80111 -1.36023 -5.30548 
-1.30692 0.720847 -5.89859 
3.46837 2.74446 -9.60301 
-0.0350874 1.86421 -7.00566 
0.0726186 -1.08041 -5.86475 
-1.18299 -0.438431 -5.90149 
-0.886493 -0.0994119 -6.15353 
-1.05077 -0.115506 -6.03059 
-1.31374 1.31993 -5.94693 
2.05613 0.87708 -8.52413 
2.11492 -0.998001 -7.85063 
1.40912 2.0764 -8.09552 
-1.07587 1.02714 -6.12511 
-1.05736 -1.26728 -5.9217 
-1.06828 1.50552 -6.17279 
-1.33848 -1.16689 -5.6902 
-1.92399 -0.548426 -5.28109 
0.110488 -0.549434 -6.62918 
-0.127881 2.0459 -6.95575 
1.0348 0.728014 -7.24295 
2.23022 0.0712243 -8.60061 
3.71121 1.30625 -9.62822 
1.03657 2.16259 -7.86087 
-0.313868 1.44088 -6.75424 
-1.27388 1.42861 -5.9878 
1.11289 0.0452388 -7.25149 
2.662 0.735244 -8.97654 
-1.08997 1.32629 -6.13295 
-0.0318321 0.20985 -6.55381 
-1.51717 1.53528 -5.82208 
-1.50445 -0.0906468 -5.688 
1.75849 -1.14547 -7.43563 
-1.43686 -0.131778 -5.71599 
-0.917367 0.778406 -6.23289 
0.463915 0.914175 -6.66309 
3.71388 -1.77289 -9.51523 
0.399226 2.21197 -7.29653 
1.07519 2.24298 -7.89611 
-1.39526 -0.311507 -5.74889 
-1.29273 1.51394 -5.99306 
1.2567 1.03036 -7.30222 
0.0760129 -0.843727 -6.44468 
-1.86786 -0.428565 -5.33441 
-0.838425 1.37399 -6.33092 
0.371694 2.23531 -7.31301 
-1.20909 -0.686918 -5.85013 
0.409387 -0.643013 -6.68387 
0.499043 0.846149 -6.69009 
0.161627 0.998951 -6.62259 
-1.09055 0.766119 -6.09696 
-1.4857 -0.457855 -5.645 
1.73766 0.508953 -8.26807 
0.430366 0.103347 -6.72995 
0.667478 -0.634051 -6.7916 
3.71427 -1.95175 -9.50615 
1.69172 2.49845 -8.35151 
-1.748 1.30104 -5.62675 
1.32428 0.120347 -7.56958 
1.23285 2.32731 -8.01544 
-1.06648 1.26212 -6.15872 
1.90971 0.890148 -8.4234 
1.1261 0.825244 -7.18413 
-0.33206 -0.702136 -6.02608 
-0.0962347 -0.345355 -6.46986 
-1.24577 -1.10282 -5.77304 
-0.974053 -1.39833 -5.95643 
-0.808199 0.735349 -6.31776 
-1.32724 1.03453 -5.92046 
3.26576 -0.777817 -9.28846 
2.28074 2.43143 -8.7972 
-0.855065 -1.58941 -6.01415 
1.36262 -0.533003 -7.60343 
-1.40283 -1.06573 -5.65854 
-1.41294 -1.22599 -5.63221 
3.67996 -1.94386 -9.53867 
-1.36815 -0.887657 -5.71322 
0.408241 -0.588254 -6.67501 
-0.972557 -0.161111 -6.04664 
-1.49401 1.7772 -5.85593 
1.79332 -1.09352 -7.41681 
-0.925866 -1.35278 -5.99472 
-1.09163 -1.13212 -5.88426 
-1.82799 -1.61044 -5.09605 
-0.364416 1.33571 -6.68082 
1.77807 2.08471 -8.40178 
1.03657 1.33889 -7.0205 
4.36359 2.29942 -10.0389 
3.39173 -2.20674 -9.15279 
3.13652 1.30277 -9.38888 
0.755904 -0.488474 -6.75068 
3.24212 -0.712105 -9.33006 
2.46275 -0.271895 -8.71041 
-1.41572 1.37002 -5.89576 
-1.44989 -0.656745 -5.65909 
-1.61396 1.04208 -5.70027 
-2.26015 -1.59997 -5.22038 
-1.92659 -0.833647 -5.24873 
-0.373215 0.533587 -6.60163 
1.28538 0.280337 -7.61959 
1.3447 0.434702 -7.63434 
-2.47994 -1.20113 -5.49185 
-1.23946 -1.03593 -5.80091 
-1.99606 0.0205827 -5.35765 
-1.67688 -0.316861 -5.5163 
0.733663 2.13719 -7.60061 
0.774867 -0.0382698 -7.02389 
-0.823488 -0.72457 -6.15568 
-0.0423075 -0.224541 -6.50683 
2.74845 0.656613 -9.0418 
1.37453 2.36315 -8.12964 
2.9156 2.19533 -9.28119 
-1.96323 -1.48671 -5.16227 
0.751213 1.59007 -6.87144 
-1.07009 -1.06577 -5.90451 
-1.28733 -0.736164 -5.75865 
-1.3073 0.72158 -5.89964 
-0.534799 0.706296 -6.52336 
0.568087 -0.554672 -6.75454 
-1.14728 1.18239 -6.07371 
3.1221 2.5034 -9.45331 
3.4659 -2.12329 -8.46785 
1.17873 0.903333 -7.12408 
2.14449 1.65583 -8.65283 
-1.30678 -1.46386 -5.68312 
1.96464 -0.458951 -7.96102 
-1.54933 -1.52949 -5.47879 
3.12092 2.27031 -9.51626 
-1.39421 1.33771 -5.89967 
1.65089 2.5001 -8.35277 
-1.34466 -1.26986 -5.67051 
-0.812907 1.76904 -6.38549 
0.649439 -0.646649 -7.00895 
0.862864 -1.19779 -6.60358 
2.00843 2.03252 -8.57116 
0.443705 0.976464 -6.64593 
1.84081 2.23591 -8.45807 
-0.382029 -1.22806 -5.70445 
-1.86415 -0.0283864 -5.38676 
-2.26009 -1.59881 -5.21802 
0.912271 1.34456 -6.91705 
-1.08572 -1.38403 -5.86945 
-1.67764 -1.20202 -5.42494 
3.20058 1.23827 -9.40649 
2.40794 2.63496 -8.93253 
3.28211 -1.36438 -9.24836 
-0.236105 1.27707 -6.7886 
-1.18677 0.472367 -5.98152 
-1.09275 1.20194 -6.11925 
3.62752 1.44551 -9.59392 
0.409175 0.827581 -6.65236 
1.89522 1.2067 -8.3821 
2.10263 0.867634 -8.54703 
2.52023 -0.997994 -8.90033 
0.952716 1.35523 -6.9361 
-0.994339 1.0363 -6.18456 
-0.11427 -1.26125 -5.91452 
-0.551584 1.84342 -6.60153 
-1.55359 -0.297917 -5.60858 
-1.04231 1.04829 -6.14139 
-1.75621 -1.74282 -5.16113 
-1.40869 -1.64992 -5.45143 
1.36721 -1.09874 -7.10171 
2.50117 2.00036 -8.9394 
1.96093 0.949 -8.44652 
-1.19829 1.31715 -6.0401 
1.57159 0.592345 -7.73682 
0.380149 -1.02159 -6.3513 
-1.07908 1.18597 -6.12974 
0.329536 1.1205 -6.70098 
-1.00732 -1.07608 -5.97484 
3.77544 -2.18231 -9.23414 
1.12517 -0.617454 -7.24516 
-0.0727182 -0.84374 -6.01289 
1.3275 2.24386 -8.06022 
2.12979 0.299235 -8.53663 
0.547426 -0.776719 -6.65434 
-1.08167 -0.887711 -5.91962 
-0.774609 1.92245 -6.43735 
-1.39579 1.32702 -5.90001 
1.45654 0.617787 -7.61814 
0.721391 -0.25148 -6.98194 
-1.34016 -0.361665 -5.77282 
-1.49643 -1.45811 -5.53201 
2.57763 -1.14493 -8.81098 
-1.16434 -1.45726 -5.80029 
-1.10798 1.94424 -6.19988 
-1.2337 0.154023 -5.91292 
0.35005 2.16608 -7.31086 
-1.3791 0.289892 -5.81403 
0.117702 1.85796 -7.11049 
-1.17225 1.25593 -6.06835 
-0.923109 1.01318 -6.23798 
1.03178 1.33583 -7.02466 
0.351714 0.252413 -6.65535 
-1.85531 1.34281 -5.53913 
0.361073 0.0519228 -6.69152 
-1.88643 1.34845 -5.5067 
0.0412311 -1.17766 -5.91821 
3.14281 -1.45551 -9.16851 
1.37448 -1.09574 -7.13976 
1.84753 -1.02417 -7.49655 
-1.7278 0.61565 -5.57574 
-0.885911 -0.674204 -6.08673 
0.477822 0.95247 -6.65555 
0.693127 -0.314755 -6.97809 
0.0422826 -1.17867 -5.92277 
-1.39629 1.28753 -5.88702 
0.5146 -0.578311 -6.7643 
3.16109 2.09694 -9.41893 
-1.72966 -0.581979 -5.43812 
-0.759317 1.16079 -6.37729 
-0.748803 0.713601 -6.34296 
-0.364039 1.33716 -6.68148 
-0.921193 1.9567 -6.30758 
2.20069 0.470458 -8.60043 
-0.868343 0.757639 -6.25095 
3.63287 -0.76496 -9.63988 
-0.781551 -0.636741 -6.18115 
-1.85466 1.34323 -5.53653 
1.14904 1.45017 -7.16885 
4.19352 -2.12299 -9.18833 
-1.40998 0.410105 -5.80225 
-1.0417 -0.51486 -5.99215 
-1.06498 0.125816 -6.05225 
-0.257512 1.86393 -6.83478 
-0.265481 -0.834889 -5.85458 
-1.11752 1.1752 -6.10182 
-1.54074 1.06057 -5.75073 
0.419702 1.21819 -6.69705 
0.15518 0.345126 -6.74056 
-0.370146 1.65727 -6.72301 
-1.28143 -1.25404 -5.7485 
-1.59093 0.404629 -5.66129 
2.04295 -1.17194 -7.63151 
-0.760702 1.99155 -6.44175 
-1.22491 -0.666056 -5.82522 
-1.41642 -1.50638 -5.59971 
1.94418 -0.999976 -7.49111 
2.49527 2.47798 -8.95969 
-1.74243 -0.843412 -5.39724 
-2.40073 1.74625 -5.84675 
-1.42084 -0.865209 -5.66045 
-0.490205 1.12704 -6.58688 
1.17835 -0.0348978 -7.32831 
3.11599 2.60456 -9.44131 
-1.63014 0.876343 -5.67416 
-1.01702 0.61752 -6.13607 
1.19202 2.09791 -7.97253 
-1.19067 0.444599 -5.97986 
-1.92665 0.0552368 -5.35065 
-0.410466 -0.53592 -6.06523 
-0.518508 1.68233 -6.62304 
-0.968123 -1.36238 -5.96525 
-1.08492 1.04165 -6.10802 
-1.17473 1.18113 -6.07018 
-2.48502 1.2009 -5.7351 
-0.0928713 2.0384 -6.97814 
-1.42491 1.80625 -5.91025 
3.6279 0.255464 -9.59841 
0.574806 2.17791 -7.3865 
-1.20765 1.28084 -6.03504 
-0.42505 1.78752 -6.68744 
-1.79909 -1.4584 -5.28024 
-1.3902 1.45244 -5.92597 
-1.07016 1.19415 -6.13569 
-0.624121 1.67448 -6.52075 
-0.529895 1.32996 -6.58842 
2.69168 1.61454 -9.05005 
3.19743 0.829158 -9.37628 
-1.03702 -0.13644 -6.0374 
1.32741 2.31868 -8.07095 
-1.85701 -0.224885 -5.37516 
-1.03784 1.05005 -6.1345 
2.74639 -0.441593 -8.92538 
3.04644 -1.32817 -9.1047 
-0.435401 -0.497293 -6.08744 
0.390455 -0.447345 -6.69178 
-1.0815 0.265298 -6.03904 
-1.98217 -0.558512 -5.28233 
1.05689 1.83352 -7.23814 
-0.800009 0.447147 -6.27571 
0.331823 -1.00331 -6.3161 
0.348668 0.242234 -6.67203 
0.471121 1.82239 -6.7808 
-1.02544 1.01573 -6.17371 
-1.44198 -1.51569 -5.5684 
2.76766 -1.3097 -8.90815 
-0.0114756 0.100354 -6.58471 
-0.921701 -0.903895 -6.04279 
-0.118667 1.83944 -6.93342 
-1.44179 1.0356 -5.82542 
-1.73566 -0.625674 -5.42822 
-0.593111 -0.169227 -6.04182 
-1.66189 0.286775 -5.57715 
-1.65981 -0.00247536 -5.55753 
0.0683308 -1.4963 -5.90802 
-1.79597 -1.42356 -5.29073 
1.43573 1.92461 -8.13187 
-1.08366 0.244528 -6.03767 
-1.55102 -1.48853 -5.48171 
0.71195 1.37769 -6.76356 
-0.493214 1.31356 -6.5932 
0.66448 -0.501847 -6.75224 
3.59709 1.10237 -9.61641 
-1.64536 0.0291242 -5.56804 
1.04458 -0.594942 -7.18824 
-1.44452 -0.607786 -5.65345 
0.655821 -1.04757 -6.56431 
-0.0843231 1.71787 -6.94001 
-1.41179 1.39622 -5.89491 
0.865996 1.12795 -7.02669 
0.0376793 -1.62306 -5.92546 
2.92711 1.0409 -9.19627 
0.0410343 0.247249 -6.64027 
-0.671815 0.536558 -6.3883 
-0.045467 1.84739 -7.00009 
-1.93034 -1.01863 -5.21995 
-1.30446 -1.43921 -5.67218 
-0.0933191 -1.49346 -5.91224 
-1.17766 -1.50145 -5.80451 
2.49299 1.96463 -8.92725 
0.413459 -0.391317 -6.67688 
-1.06642 1.41163 -6.15382 
2.39476 1.20676 -8.80839 
-1.07935 0.222288 -6.03783 
-1.53596 0.587228 -5.72015 
2.82861 1.01282 -9.11462 
-1.48258 -1.35501 -5.55776 
-0.669051 0.302607 -6.35852 
0.333634 0.379853 -6.66781 
-1.60924 0.862955 -5.67441 
-1.80571 -1.38809 -5.28398 
-1.84374 -0.847918 -5.33013 
0.183789 2.20406 -7.18434 
-1.53875 -0.654993 -5.60704 
1.07816 0.948912 -7.11943 
-0.491258 0.0289079 -5.9172 
-1.61274 1.68067 -5.75622 
-0.850494 -0.390665 -6.16112 
-1.09178 1.56015 -6.14409 
-0.915102 1.48768 -6.30045 
-0.879112 -1.28193 -6.04486 
0.87483 -1.0583 -6.74167 
3.14822 1.8652 -9.43915 
0.547187 0.909125 -6.71914 
-1.57897 -0.666044 -5.57016 
-0.747528 0.734319 -6.35244 
-1.06125 0.714636 -6.10196 
-1.88035 -1.11132 -5.25058 
-2.41647 -1.34136 -5.55666 
0.0284834 2.20985 -7.08574 
0.93214 2.2766 -7.78848 
-0.0957069 -0.480487 -6.48883 
3.17651 1.58184 -9.39413 
0.932535 1.50936 -7.04926 
-1.80532 0.648838 -5.50248 
-0.944487 1.15067 -6.22345 
-0.514148 -1.59425 -5.57355 
-1.95313 -0.0466019 -5.3311 
-0.416801 1.77643 -6.67804 
-1.32894 1.54263 -5.96091 
2.2466 -1.26961 -7.78322 
0.441911 -0.425602 -6.72024 
-1.76971 -0.277153 -5.44073 
3.16996 2.06442 -9.36615 
2.58124 2.2447 -9.00427 
-0.888019 -0.359698 -6.1442 
-1.60774 0.604545 -5.6658 
0.305598 -0.718044 -6.53607 
-1.20291 -1.15341 -5.79085 
-1.07367 1.63689 -6.18688 
0.114574 1.19561 -6.66539 
0.68317 -0.262646 -6.97844 
-1.56754 -0.0604935 -5.60678 
-1.36375 0.826919 -5.8754 
-1.03708 1.73347 -6.21345 
-1.24468 -1.4228 -5.74781 
4.60304 -2.21312 -9.58813 
3.1767 1.8217 -9.43011 
-1.32393 -0.363129 -5.76204 
1.28427 1.31024 -7.21837 
-0.413193 -0.584941 -6.07548 
-0.631568 1.09953 -6.46795 
3.73644 -1.88686 -9.46646 
-1.44401 -0.15724 -5.70668 
-1.22206 1.51785 -6.04259 
2.7861 1.76622 -9.12658 
-1.92443 -1.17813 -5.20763 
-1.08249 -0.780644 -5.94702 
0.686983 -0.185352 -6.89761 
2.13492 0.0627761 -8.54968 
-1.65886 0.825414 -5.64895 
1.9342 2.02808 -8.5097 
-0.396215 -0.0187114 -5.94991 
0.219739 -0.953282 -6.21694 
-1.36673 -0.403698 -5.7421 
-2.41103 -0.406673 -5.56002 
-1.02542 -0.903121 -5.97374 
-0.0922305 -1.49467 -5.91273 
-0.192322 2.02283 -6.90728 
0.406987 2.17988 -7.32281 
-1.92408 -1.20149 -5.20043 
1.15256 -0.372977 -7.27869 
-0.948173 1.10889 -6.22748 
-1.62327 -0.336227 -5.54341 
-1.27596 -0.577818 -5.79173 
-0.175053 1.99778 -6.89411 
-1.19592 1.72788 -6.10173 
2.4675 1.8091 -8.91 
-1.5526 -0.392642 -5.5982 
-0.583546 1.17206 -6.51891 
-1.70262 -0.0577944 -5.53764 
1.63244 -0.499985 -7.82366 
0.14283 1.11704 -6.58394 
-0.874449 1.88512 -6.36523 
-0.224515 1.99444 -6.87186 
0.90003 2.36706 -7.75612 
0.529695 -0.760199 -6.66948 
-1.92214 -1.1768 -5.20425 
-1.26269 0.611674 -5.92063 
-0.425147 -0.631782 -6.06151 
0.946968 2.26223 -7.80045 
3.18006 0.886462 -9.38689 
-0.601585 0.431643 -6.42451 
1.36976 -0.0159142 -7.67695 
-0.891676 -0.717565 -6.10242 
-1.14841 -0.592359 -5.89284 
0.932612 2.35903 -7.81848 
1.96333 -0.461084 -7.97703 
-0.448605 1.55852 -6.6426 
-1.2112 1.65398 -6.07341 
-0.152539 2.02161 -6.92145 
-1.83343 1.3397 -5.54977 
-1.92453 -0.547994 -5.28159 
-1.03581 -1.07823 -5.91343 
-1.86752 -1.02446 -5.27215 
1.43118 2.2613 -8.11789 
0.253729 1.41244 -6.51361 
-1.70967 0.0544732 -5.51561 
-0.976913 1.0614 -6.20651 
2.27098 1.75346 -8.76271 
2.04961 -1.12145 -7.65192 
1.11266 -1.09197 -6.92104 
-1.25804 1.57681 -6.02474 
-5.7362e-05 1.70116 -7.004 
0.633104 -0.343485 -6.9955 
2.3225 2.61245 -8.85712 
-1.65766 1.57068 -5.71302 
-1.07929 -0.76858 -5.93136 
2.4958 1.99774 -8.90577 
3.75565 -0.778642 -9.56902 
-1.28525 0.774417 -5.95103 
-1.11272 0.779476 -6.08356 
-1.20044 1.34355 -6.05111 
0.928481 1.5215 -7.01342 
-0.847939 -0.391823 -6.15929 
2.46428 2.61849 -8.96011 
0.629891 -0.0637045 -6.94886 
-1.35677 -1.24514 -5.69925 
-0.535502 1.01572 -6.53767 
-0.962414 -1.45073 -5.9658 
-1.40102 1.7004 -5.92478 
-0.305603 1.09573 -6.7259 
0.960214 1.47804 -7.06961 
0.908331 -0.578514 -6.93315 
0.882043 -0.979678 -6.75382 
0.530331 0.812254 -6.73122 
-1.33041 1.54422 -5.96499 
0.404418 0.953709 -6.64079 
-1.59188 -0.619396 -5.53158 
-1.05944 -0.728518 -5.95871 
-0.932255 1.54466 -6.28626 
3.81658 -1.76852 -9.47049 
-1.3677 -0.431382 -5.74362 
0.29796 -0.726132 -6.51363 
-0.152599 1.64566 -6.90365 
-0.516214 0.970847 -6.55387 
-0.959567 1.5975 -6.2827 
-0.92623 0.749762 -6.21382 
-1.57782 1.69913 -5.78459 
-1.07737 1.41111 -6.16287 
-1.39354 1.02552 -5.87841 
-1.46974 0.135686 -5.72565 
-1.37698 -0.658481 -5.71964 
-1.76689 -1.42252 -5.30509 
-2.5772 -0.49074 -5.59778 
-0.431621 0.502521 -6.56595 
-0.92852 -1.48554 -6.00411 
-0.786482 1.90836 -6.4063 
-0.714926 1.86405 -6.47479 
-1.40989 -0.959131 -5.65079 
-1.60459 -1.79271 -5.26663 
-1.00185 -0.338329 -6.04517 
0.796626 0.637881 -7.08232 
1.90749 -0.815624 -7.82497 
-0.409691 -0.609448 -6.06703 
-1.35159 -1.52347 -5.64558 
-1.14377 -0.601286 -5.90056 
-0.608143 1.3276 -6.5061 
-0.437987 1.44501 -6.6554 
-0.903712 -0.930176 -6.06135 
3.24977 -1.23195 -9.24637 
-0.200688 0.877237 -6.37538 
-0.163178 -1.437 -5.87035 
-0.0472808 -0.96613 -6.02 
1.5003 2.54555 -8.23265 
-1.12766 1.03994 -6.08433 
-0.693245 0.779537 -6.35996 
3.03782 -1.10351 -9.11853 
2.14697 -1.16719 -7.72569 
-0.705882 1.91109 -6.48145 
-1.88675 0.255334 -5.40719 
-0.48623 0.305479 -6.50102 
1.03828 0.191405 -7.19045 
-1.66329 0.0130636 -5.5638 
0.952077 2.37675 -7.81026 
-1.49303 -1.08633 -5.59773 
0.289868 0.290528 -6.48127 
0.493058 -1.02348 -6.44903 
-1.98528 0.692635 -5.41086 
2.82473 1.76884 -9.13958 
-0.511817 -0.16971 -6.00489 
-1.16978 1.27423 -6.06407 
0.158097 0.992741 -6.63478 
-0.428003 -0.931002 -5.72431 
-1.82549 -0.48118 -5.37154 
-0.429587 0.92548 -6.60589 
-1.86521 -1.1761 -5.25146 
3.64164 -1.28972 -9.54667 
2.02217 2.05353 -8.56944 
-1.02305 -0.00586512 -6.05964 
-1.01114 -1.07992 -5.95994 
-1.86487 -0.0240476 -5.39009 
4.36213 2.19246 -9.99373 
-1.23905 -0.615523 -5.83108 
3.55879 1.98185 -9.6296 
2.40215 1.62634 -8.85463 
-1.3276 -0.905656 -5.74579 
-1.64788 0.0122863 -5.57642 
-0.726168 0.324081 -6.32006 
-1.81839 0.458289 -5.47259 
-1.48096 -0.372967 -5.65403 
-1.70865 1.34707 -5.64159 
3.28212 -1.50831 -9.2511 
-1.9193 0.637954 -5.41132 
-1.09828 0.0562665 -6.00075 
0.0191497 0.961751 -6.32719 
-1.11302 1.91595 -6.16224 
1.60387 1.68616 -8.23676 
-0.776278 0.733821 -6.32795 
-0.606771 0.370851 -6.41787 
-2.31153 1.1582 -5.81461 
0.724474 -1.05657 -6.62364 
-0.27446 -0.949237 -5.84382 
0.784434 -0.957284 -6.65857 
0.647391 -0.170221 -6.91529 
1.06122 0.783953 -7.21845 
-0.723299 1.14363 -6.39652 
-1.90853 0.304523 -5.38384 
-0.770934 -0.846207 -6.03367 
-0.195858 1.25838 -6.80193 
3.80053 -1.75654 -9.52714 
-0.420247 -0.619816 -6.0627 
0.834576 1.47333 -6.96878 
0.37801 1.42676 -6.50266 
-1.19526 -1.4919 -5.77769 
0.593197 1.37036 -6.6907 
0.182616 1.22073 -6.67077 
2.83279 0.423205 -9.07262 
1.49677 0.326441 -7.61752 
-0.788969 1.91058 -6.41479 
-0.992717 1.3742 -6.21235 
-1.09003 -0.683119 -5.95095 
-1.97475 -1.5647 -4.99439 
1.55329 0.758789 -7.59698 
0.0508668 -0.0875252 -6.62361 
-1.13485 1.8853 -6.15526 
-1.81237 1.10915 -5.539 
-1.62716 1.54794 -5.75178 
0.658084 0.59824 -6.96642 
-2.44483 -0.821536 -5.56112 
0.00917423 -0.257958 -6.46799 
-1.17026 0.420938 -5.98257 
-0.862664 -0.796824 -6.12222 
3.70658 -1.39853 -9.55167 
-1.01239 1.94614 -6.25515 
2.58358 -0.861043 -8.79291 
-1.38885 -0.43111 -5.72663 
2.44625 0.0609229 -8.74427 
-0.574346 1.52732 -6.54569 
-1.38123 -1.64771 -5.47039 
2.21365 1.99297 -8.71945 
-0.0548954 0.58161 -6.49231 
4.58011 2.2862 -10.0001 
-1.21587 0.637412 -5.96794 
-1.91313 -0.996505 -5.24631 
0.713342 1.35839 -6.78208 
-1.27588 1.0262 -5.98574 
-0.37195 2.08833 -6.7665 
-1.66469 0.11384 -5.5634 
2.7723 0.215309 -9.00341 
-1.46724 -0.878732 -5.64573 
-1.6767 -1.17914 -5.40951 
2.72187 0.222447 -8.98247 
-1.40597 -0.881129 -5.67915 
0.475558 0.369858 -6.81854 
-1.69036 -0.368645 -5.49982 
-1.73527 -0.291197 -5.4609 
-1.86361 1.31806 -5.5277 
1.43986 1.30707 -7.2947 
2.84534 1.08418 -9.12082 
-1.34547 1.50652 -5.94214 
-0.560795 1.60798 -6.55334 
-1.19328 -1.23861 -5.79916 
2.5615 -1.07639 -8.82448 
0.49554 -0.968323 -6.45924 
-0.908099 0.171099 -6.16157 
-1.26497 -0.503335 -5.82741 
-1.46955 -0.284776 -5.66213 
-1.38705 -0.129796 -5.76449 
1.09685 -0.266739 -7.23842 
-2.52113 1.08881 -5.78438 
3.75446 -0.77479 -9.57253 
-0.37364 -0.630244 -6.05313 
0.705303 -0.189407 -6.89841 
0.319981 -0.787277 -6.41943 
-1.17515 1.26206 -6.07055 
2.94588 -0.14054 -9.1116 
3.10651 2.67577 -9.44333 
-1.89475 -1.1825 -5.22221 
0.358736 0.945471 -6.67388 
-1.76848 -0.578653 -5.40834 
-1.61936 1.63234 -5.74842 
-1.43354 -0.0859653 -5.73654 
-1.10459 0.989441 -6.09729 
-1.51164 -0.882362 -5.60161 
1.84362 2.1974 -8.46581 
1.24809 2.30741 -8.0087 
-1.28171 1.25172 -5.97455 
-0.634463 1.60466 -6.51216 
-1.14061 -0.336193 -5.93695 
3.77922 -0.80261 -9.5434 
1.55551 1.01007 -8.14773 
-0.9277 0.744614 -6.21494 
1.82941 2.26811 -8.45467 
-0.8781 1.17415 -6.28026 
-1.28592 0.77429 -5.95035 
-1.43831 -1.55412 -5.53947 
-1.76064 -1.44083 -5.31216 
1.97786 -0.76839 -7.88436 
0.651908 0.711959 -6.96468 
1.65867 2.25179 -8.29007 
-0.273136 -0.748797 -6.004 
1.03512 0.183242 -7.19671 
-1.35612 -0.390995 -5.75069 
-1.39563 1.02204 -5.87351 
0.599552 -0.991403 -6.52291 
-1.06052 0.714312 -6.09906 
0.562717 0.960569 -6.73136 
-0.502955 1.45805 -6.60252 
0.215033 2.02965 -7.20578 
0.46423 -0.546232 -6.73792 
-0.453197 2.04616 -6.68047 
-1.26758 -0.853296 -5.76349 
-1.06566 -1.44342 -5.87702 
-0.781037 0.330728 -6.2832 
0.00114661 -0.328363 -6.45656 
-0.572109 1.70836 -6.57813 
2.24324 2.46134 -8.78981 
-1.83138 -0.841231 -5.32382 
2.8139 1.79803 -9.15329 
-1.56522 -0.285033 -5.60673 
-0.651488 0.712446 -6.42921 
-1.74846 -0.276785 -5.45288 
-1.74866 -0.862074 -5.40561 
2.64838 1.10414 -8.97631 
0.699497 -1.05487 -6.63347 
-1.37596 0.390756 -5.83762 
0.145552 -0.369964 -6.68045 
-1.41703 0.435601 -5.78708 
-0.275478 1.11326 -6.72773 
-1.3667 -0.404592 -5.74201 
-0.360025 1.3983 -6.71774 
-1.41611 -1.50681 -5.59554 
-1.18878 -1.25721 -5.82874 
-1.33492 -1.34182 -5.66658 
2.72187 0.875003 -9.05553 
-1.05631 -1.28938 -5.8907 
4.48266 -2.18433 -9.38739 
0.849431 0.455699 -7.12666 
-0.286146 0.835463 -6.50612 
-1.4575 -0.367977 -5.66757 
1.91341 0.0796299 -8.31787 
-1.71055 -0.256979 -5.48831 
2.59551 1.93726 -8.97546 
-1.07923 -0.762728 -5.95324 
1.64609 2.29174 -8.30725 
-0.827656 -0.790125 -6.12472 
-1.88129 0.508384 -5.42687 
-2.44474 0.182836 -5.64625 
2.60385 2.00876 -9.03769 
-1.00198 -1.00363 -5.97871 
-1.3167 0.57721 -5.87863 
-1.64486 0.112485 -5.59508 
3.73691 -0.520508 -9.54682 
-0.550775 -0.784912 -5.76524 
0.688554 -0.154621 -6.90532 
-0.963585 -1.36165 -5.96047 
0.430114 1.39329 -6.55649 
1.62931 1.10749 -8.20049 
0.108911 -0.385374 -6.64749 
-1.4588 -1.53374 -5.5138 
2.73479 -0.221502 -8.95842 
-1.09762 -0.054821 -5.99614 
0.0543323 -0.236131 -1.76231 
3.7894 -1.7456 -9.54754 
0.393868 0.759402 -6.66503 
-0.924867 -0.512307 -6.0917 
2.26106 2.28011 -8.7926 
3.24596 -1.0719 -9.29486 
0.377419 1.42565 -6.49871 
-0.341944 1.73305 -6.74921 
-1.35163 -1.26321 -5.66626 
0.39141 1.19645 -6.68461 
-0.00824617 0.32855 -6.61547 
2.92051 0.242527 -9.1196 
0.253753 2.03163 -7.24229 
-1.45087 -0.288311 -5.69728 
2.25409 0.877139 -8.6727 
-1.03821 0.112996 -6.05531 
-0.84403 1.75722 -6.37114 
1.87714 -0.508644 -7.94871 
-1.05678 -1.04925 -5.91939 
-0.799992 1.78744 -6.39537 
1.26546 1.06285 -7.30928 
-1.21007 1.54043 -6.07302 
3.15948 1.26107 -9.3455 
-1.79422 -1.02294 -5.34822 
-1.10816 0.150592 -6.02325 
-0.988566 0.120283 -6.11683 
0.687945 -0.933365 -6.61198 
-1.24117 -0.660883 -5.82924 
-0.420185 0.109178 -5.94781 
0.987913 -0.973198 -6.82241 
2.76325 1.84158 -9.14109 
-1.51517 -1.15887 -5.54002 
-1.47734 -1.08505 -5.59439 
-0.965376 -0.929378 -6.01627 
-1.61016 0.62302 -5.64067 
-0.521485 0.894742 -6.52442 
0.00662641 -0.887971 -6.06563 
-0.482834 2.07749 -6.67197 
-1.37634 -0.619585 -5.71256 
0.709533 -0.395306 -6.82075 
0.462541 1.71904 -6.85378 
-1.81844 -0.415049 -5.39243 
-1.95272 -1.55453 -5.13165 
-1.3354 -1.44198 -5.66022 
-1.24882 1.83106 -6.06169 
0.0514349 -0.104272 -6.62196 
2.10136 0.286485 -8.51692 
-0.0557116 -0.830559 -6.01754 
-0.978076 1.07106 -6.21783 
-1.39971 -0.297803 -5.72996 
0.977959 -1.02077 -6.82416 
-0.67276 1.91337 -6.51586 
2.03006 1.85517 -8.57961 
0.0140081 -0.0423594 -6.5893 
-0.801545 -0.515229 -6.16761 
2.28899 0.999616 -8.71512 
-1.88491 -1.41016 -5.22506 
-1.38808 -0.128901 -5.7662 
-0.993752 -1.50924 -5.94854 
1.47002 2.19776 -8.20906 
1.73964 1.26338 -8.33686 
-0.310002 -0.551613 -6.31792 
