ply
format ascii 1.0
comment VTK generated PLY File
obj_info vtkPolyData points and polygons: vtk4.0
element vertex 1707
property float x
property float y
property float z
element face 0
property list uchar int vertex_indices
end_header
0.497057 0.349919 -11.6922 
1.62475 0.327138 -5.73556 
1.27508 1.77901 -5.83244 
0.742669 -0.750294 -4.73956 
1.19625 -0.682489 -4.97733 
1.33668 1.01368 -5.72441 
0.429138 -0.24726 -4.77429 
-1.58587 -0.719689 -4.44552 
0.83624 -0.195513 -5.19798 
-1.29691 -0.735214 -4.54813 
0.280487 -0.311539 -4.79312 
2.60927 1.70254 -6.23222 
-1.34793 0.414117 -4.64667 
-1.6325 0.604959 -4.56339 
1.93364 0.432799 -5.85101 
0.496672 -0.145838 -4.85544 
-1.28717 1.08576 -4.7637 
0.597999 0.676438 -5.10098 
-1.3974 -1.17659 -4.38726 
1.47751 -0.62887 -5.08708 
-1.1555 -1.01378 -4.57039 
0.503845 0.50277 -5.04189 
0.144584 -0.877528 -3.81316 
-0.295385 -1.13462 -4.34076 
1.50892 -0.225154 -5.62616 
1.30425 -0.619398 -5.0265 
-1.01861 -0.620334 -4.65266 
0.127711 -0.345069 -4.80951 
-0.31913 1.60436 -5.19592 
1.76941 -0.741847 -5.64435 
0.390467 -0.240939 -4.77856 
-1.05748 1.23194 -4.86139 
-0.996825 1.06706 -4.85962 
2.21433 -0.409273 -5.84616 
-1.03271 -0.474075 -4.66756 
-1.13089 0.239271 -4.7299 
-1.14255 0.168198 -4.69762 
-0.0606775 -0.633274 -4.53711 
-1.19638 -0.75342 -4.58882 
-1.53308 -0.719494 -4.46902 
-1.38505 1.16187 -4.72638 
0.115259 0.152592 -4.85286 
1.27634 -0.564078 -5.10712 
-0.432607 0.510461 -4.99285 
-0.605605 -0.310545 -4.5415 
1.94964 1.09079 -5.97155 
-1.38483 1.16231 -4.72557 
0.520971 0.141501 -5.00367 
-1.52818 0.815445 -4.64079 
1.61944 -0.196087 -5.65885 
-0.198724 -0.0251815 -4.82229 
-1.24067 -0.123746 -4.63252 
1.58077 -0.346799 -5.60682 
0.131305 1.80201 -5.38979 
-1.30205 0.254153 -4.64921 
1.76358 0.137085 -5.74058 
-0.0841782 -0.307057 -4.84698 
-0.525952 0.687771 -4.99169 
2.58369 1.06556 -6.09117 
-1.29032 -0.121212 -4.61821 
-1.61766 -1.05096 -4.39731 
0.289984 -0.794808 -3.75937 
2.28121 1.63427 -6.1896 
-1.04179 -1.01146 -4.6219 
-0.121086 -0.565457 -4.51502 
2.10732 -1.2494 -5.65269 
0.683994 0.101743 -5.05215 
0.10677 0.197969 -4.84255 
0.853779 -0.0177325 -5.22402 
-1.44899 1.38557 -4.73186 
-1.43693 -1.05252 -4.4764 
-1.66227 -0.138825 -4.47373 
1.71793 0.425672 -5.78263 
1.72274 0.161435 -5.73893 
-1.00236 1.7168 -4.97525 
1.20059 -0.693345 -4.98641 
0.467347 0.502314 -5.03271 
1.66409 0.456364 -5.76645 
-1.59433 -1.06939 -4.40625 
1.18603 1.37855 -5.72976 
-0.587776 1.19519 -5.03029 
-1.15847 1.68958 -4.88382 
-0.0793422 0.43502 -4.93241 
-0.640705 -0.52468 -4.33008 
1.93201 0.697234 -5.90939 
-0.713234 1.01957 -4.95963 
-1.00551 0.734755 -4.81387 
0.637423 0.288543 -4.97431 
-1.61656 0.0913724 -4.51363 
-1.1097 -1.04828 -4.58942 
-2.34035 -0.601156 -4.65978 
-1.65613 0.273603 -4.52379 
-1.53677 -0.730668 -4.46683 
2.0345 0.413836 -5.89612 
1.2015 -0.612654 -4.99318 
-0.985956 0.0598824 -4.74076 
0.272381 1.76183 -5.40004 
-0.218353 -0.0355059 -4.8193 
-0.326337 -0.534425 -4.44526 
-2.24238 -1.29744 -4.31624 
-1.58146 -0.131447 -4.49854 
-1.50065 -1.07017 -4.44619 
-0.494433 1.37365 -5.08678 
2.19603 -1.20909 -5.73853 
1.69709 -0.586765 -5.63785 
-1.31792 1.14557 -4.74518 
-1.52248 0.27966 -4.57324 
1.55984 -0.28206 -5.61357 
-0.75565 0.702781 -4.90211 
0.322821 -0.642006 -4.66802 
-1.77565 -0.695738 -4.38366 
-1.10595 1.52271 -4.88867 
-1.58718 -0.698643 -4.44484 
-1.27629 -0.427694 -4.56107 
-1.21893 0.757181 -4.7396 
-0.933662 -0.594821 -4.69962 
2.21049 -0.472885 -5.84728 
0.560447 0.628007 -5.0699 
-0.237586 -0.632656 -4.46886 
-1.2023 0.760619 -4.75064 
0.442813 -0.57587 -4.72581 
-0.651744 1.2099 -5.01299 
1.13639 -0.691779 -4.95903 
1.75114 -0.642197 -5.66266 
-0.159209 -0.56248 -4.50488 
1.86083 -0.733353 -5.67001 
-0.895985 0.214731 -4.78477 
-1.57426 -1.05033 -4.42121 
0.508841 -0.578733 -4.73884 
-2.35517 -0.910106 -4.5716 
2.46292 -0.784141 -5.87342 
1.26477 1.02135 -5.7033 
2.07523 -1.23368 -5.64937 
0.444589 -0.96039 -3.65725 
0.0745941 -0.6431 -4.57962 
-1.55689 -0.727018 -4.45601 
-1.2347 -0.412043 -4.60478 
-0.977795 -0.976712 -4.63269 
0.571103 -0.314751 -4.97344 
0.863804 -0.338206 -5.20507 
0.0835131 0.799046 -4.91807 
1.54843 0.337234 -5.73964 
-1.32377 -0.583726 -4.56293 
0.282885 1.77003 -5.40604 
2.48326 -0.401417 -5.90584 
2.0276 -1.28886 -5.61075 
1.42232 -0.666616 -5.06858 
2.02008 0.110299 -5.83304 
0.544013 0.419998 -5.06276 
-1.1829 1.42312 -4.8287 
2.20323 -0.797848 -5.79422 
1.07129 -0.312666 -5.21724 
-0.98646 0.0507822 -4.7381 
1.6951 -0.494052 -5.64916 
1.16208 1.65442 -5.77095 
0.223694 0.375014 -4.92715 
-0.637642 -0.512416 -4.3358 
-0.760181 1.19647 -4.9625 
-0.590422 0.915335 -4.98988 
-1.28635 0.978837 -4.75857 
0.638279 0.288323 -4.97452 
-0.373429 -0.550595 -4.42001 
0.0734541 0.866876 -4.9044 
-2.34157 -0.840644 -4.63033 
1.27962 -0.412412 -5.21407 
-0.260612 -0.715313 -4.38049 
-1.42247 -0.145714 -4.56447 
0.0899875 0.339244 -4.76616 
-1.31043 1.11917 -4.74626 
-0.569697 -0.304054 -4.56719 
-1.13084 -0.702841 -4.60218 
-0.119172 0.391144 -4.9198 
-1.25858 -0.124468 -4.62502 
0.106055 1.78964 -5.38197 
0.53151 0.413412 -5.04405 
-1.43492 1.1853 -4.7247 
0.938122 -0.681568 -4.88773 
-0.0420918 1.57179 -5.29122 
0.287998 -0.321812 -4.7994 
-0.54535 1.18312 -5.04736 
-0.321488 -1.22635 -4.3147 
-0.443079 1.25913 -5.09117 
-1.1007 -0.259331 -4.66958 
-1.02983 -0.719164 -4.64456 
-1.26586 -0.707479 -4.56119 
-0.373746 -0.973351 -4.37305 
0.754958 0.756556 -5.04416 
-1.15679 -0.711777 -4.60302 
-2.33188 -0.366713 -4.67511 
-0.982317 1.72716 -4.96204 
-1.08753 -0.639679 -4.62791 
-1.88346 -0.0490103 -4.39747 
1.37592 0.345294 -5.64291 
-1.90836 -0.0396479 -4.38788 
-0.559074 -0.267302 -4.58088 
0.305904 -0.282233 -4.79272 
-0.565515 0.354929 -4.9293 
-0.861445 1.54898 -4.97748 
-1.83865 -1.03458 -4.32633 
-1.18158 -1.04818 -4.56989 
1.48176 1.33093 -5.84787 
-1.17419 -0.257005 -4.63381 
0.75315 1.81834 -5.63889 
1.24046 1.36824 -5.76212 
0.10359 0.0127164 -5.31575 
0.512509 -0.301491 -4.85078 
-0.440206 -0.848425 -4.35748 
-1.64452 -0.395179 -4.44926 
1.48954 0.340754 -5.68665 
-1.08513 -0.864397 -4.62128 
-0.359553 -0.92004 -4.38641 
-1.47837 0.964982 -4.67135 
1.99101 0.394063 -5.86939 
0.752067 1.81913 -5.64295 
1.66006 0.0118766 -5.70357 
0.0886281 0.340528 -4.78127 
-1.31831 1.12872 -4.74029 
0.802985 -0.594991 -4.84722 
1.92386 0.856959 -5.91552 
-1.78256 -1.03178 -4.34866 
2.60476 1.05994 -6.09698 
-1.45995 1.38016 -4.73435 
0.558913 0.389035 -5.05998 
-1.52227 0.280138 -4.57361 
-0.963265 -1.04498 -4.64653 
-1.61255 -0.386451 -4.4753 
-2.33091 -0.303285 -4.67803 
0.269963 -0.233862 -4.80219 
0.679993 1.72728 -5.59221 
-1.27708 -0.392613 -4.59008 
-1.75423 -1.06208 -4.35173 
-1.05644 -0.897604 -4.62631 
0.694632 0.149533 -5.05057 
-1.31812 -0.375243 -4.5668 
-1.49217 0.796431 -4.64877 
0.28895 -0.555934 -4.6616 
-1.3458 -1.06247 -4.49961 
0.454453 0.0756067 -4.92115 
-1.05107 -0.698324 -4.64315 
1.75444 -0.710287 -5.64669 
-1.58772 0.462401 -4.57198 
-1.37999 0.0762853 -4.60553 
-0.751946 0.675906 -4.90106 
1.33106 1.61501 -5.81622 
0.986954 -0.780955 -4.82294 
-0.232216 -1.13992 -4.33188 
-1.44489 0.0268588 -4.56821 
-0.733751 1.01789 -4.95473 
0.694848 0.683201 -5.03245 
-1.26809 1.28602 -4.78371 
-0.536568 0.903234 -5.01706 
-0.190814 1.47674 -5.22112 
-0.927555 1.68985 -4.97595 
-1.66197 0.260175 -4.52677 
1.94928 0.423612 -5.85509 
-1.53986 0.981066 -4.64996 
-0.56623 1.45951 -5.08163 
-1.87019 -1.31172 -4.18707 
-1.60888 0.986636 -4.61867 
-0.975336 -1.05694 -4.64079 
1.02 -0.910361 -3.8168 
0.502196 0.636547 -5.05953 
-1.58627 0.278179 -4.54675 
0.310886 -0.767546 -3.05877 
1.09157 -0.783911 -4.84615 
-0.829182 0.732139 -4.88549 
0.153164 0.195918 -4.85398 
-1.58017 -0.133564 -4.49689 
2.28276 1.54568 -6.17694 
-1.90299 -0.69225 -4.35682 
-1.22842 -1.0577 -4.55056 
-0.578386 0.185194 -4.53802 
-0.750612 0.698907 -4.91019 
-1.34575 -0.457156 -4.55255 
2.26619 1.34023 -6.13512 
-1.28669 -1.05302 -4.53036 
-0.28257 0.857896 -4.76387 
1.15819 0.503367 -5.58192 
2.17117 -1.18831 -5.78908 
-1.54109 -1.04919 -4.42872 
0.142009 0.105938 -4.85598 
-1.65834 0.131571 -4.50815 
0.68127 0.663226 -5.03254 
0.545044 -0.761609 -4.67192 
-0.725152 -1.24853 -4.21578 
-1.3267 1.15225 -4.75062 
-0.447685 -0.916891 -4.35233 
-1.89241 -1.10598 -4.27303 
-1.89853 0.367834 -4.43914 
-1.14723 0.76887 -4.76444 
0.507839 0.265064 -5.03585 
-1.93306 -1.03042 -4.28468 
0.729631 -0.906524 -3.71824 
1.21355 0.473861 -5.60408 
0.220138 -0.327997 -4.83511 
-1.07547 -0.943251 -4.60485 
2.05476 0.406701 -5.90197 
1.60682 0.976633 -5.83716 
-0.681562 0.890628 -4.96005 
-1.90853 -0.0391856 -4.38786 
-1.41172 -0.602657 -4.51367 
-0.624141 0.834049 -4.96816 
-1.44521 -0.129401 -4.57109 
-1.73052 -0.17763 -4.43995 
1.20798 -0.566479 -5.17352 
-1.1152 -1.01817 -4.58827 
-0.989825 1.4127 -4.91479 
-0.313987 1.60693 -5.20148 
-1.05637 -0.912946 -4.62094 
-1.19783 -1.08327 -4.54984 
1.48143 1.33073 -5.8454 
-1.04025 -0.402062 -4.67807 
-1.20482 1.31794 -4.81552 
-0.738962 1.17656 -4.97548 
-1.86635 -1.1883 -4.21474 
2.18149 -1.19062 -5.7447 
-1.70932 -1.07446 -4.36828 
-0.0287632 1.70418 -5.31418 
-0.856881 0.385808 -4.84358 
-0.989698 -0.921611 -4.64365 
1.53739 0.160127 -5.70061 
-0.102764 1.56987 -5.26849 
-0.299265 -0.524335 -4.45335 
-0.946301 1.70011 -4.96421 
-1.78024 -0.826251 -4.36532 
-1.02596 -0.42983 -4.6664 
-1.49196 -0.736709 -4.48213 
1.21905 -0.583224 -4.9946 
1.09998 -1.07443 -3.78645 
-1.07058 -0.723969 -4.63516 
1.15503 -0.655356 -4.95805 
2.43891 -1.12719 -5.82461 
-1.48993 -0.120345 -4.53589 
-1.04546 1.51085 -4.90689 
-1.14915 -0.361639 -4.63385 
-0.19998 -0.0226567 -4.82742 
-0.638013 1.6666 -5.08096 
-0.184722 -0.105345 -4.75743 
-0.371533 -0.953483 -4.37343 
2.07623 1.36704 -6.06166 
0.270173 -0.911664 -3.75439 
-0.178143 -0.0874756 -4.76847 
-0.219192 1.72613 -5.25065 
0.50907 0.264211 -5.03202 
1.05659 -0.588127 -4.93683 
-1.61121 1.61291 -4.70268 
-1.3064 -1.02088 -4.51187 
0.621373 0.353918 -5.06612 
-0.699982 1.00093 -4.96968 
1.07629 0.683125 -5.22622 
-1.56533 -0.606286 -4.45813 
-1.13253 0.756334 -4.77746 
-1.34673 -1.06182 -4.50082 
-1.34244 0.99433 -4.71814 
-1.66892 1.08577 -4.59726 
-1.67429 -0.123782 -4.47238 
-1.49024 -0.387061 -4.51317 
0.27037 -0.971099 -3.7474 
-1.70522 0.0777964 -4.48806 
0.157022 1.80162 -5.39597 
0.237379 -0.745103 -4.56081 
-1.8429 -1.18732 -4.22077 
-0.552188 1.02036 -5.01924 
-0.572649 1.77338 -5.12514 
-1.3372 -1.03007 -4.50622 
-1.67886 -0.224383 -4.46845 
-0.556614 0.143014 -4.49793 
-1.62006 -0.358645 -4.46281 
-1.60886 0.986557 -4.61784 
-0.737603 1.18392 -4.98107 
-0.974524 -1.00041 -4.63648 
-1.08488 0.20711 -4.74361 
-1.46222 0.972188 -4.67332 
1.87301 1.53037 -6.01169 
-1.92629 -0.211892 -4.37157 
-0.240901 0.709568 -4.82252 
0.587696 0.289182 -4.966 
-0.631645 0.740477 -4.96747 
-1.07832 -0.940636 -4.60595 
0.230813 -0.430852 -4.76587 
-1.1332 -0.758811 -4.59848 
-1.43057 -0.845017 -4.48789 
-1.51948 1.39506 -4.71049 
-0.810826 1.20811 -4.94219 
-1.41948 1.25105 -4.73303 
-1.01144 0.390234 -4.77925 
1.73495 -0.459721 -5.68216 
-1.20411 -1.01624 -4.5557 
-0.0261032 1.64208 -5.30393 
-0.350588 -1.01557 -4.37591 
1.41966 0.485539 -5.68755 
-1.55885 0.59169 -4.59707 
0.131795 -0.263717 -4.81932 
-1.51971 -0.399844 -4.50826 
-1.47579 -0.570078 -4.5132 
-1.89812 0.365996 -4.44134 
-0.181002 -0.247446 -4.82237 
-1.67128 1.01229 -4.59435 
-0.368381 -0.550891 -4.42914 
0.668124 -0.353977 -5.01008 
0.390349 1.79502 -5.41811 
1.09412 -0.797117 -4.86627 
-1.00492 1.69264 -4.94408 
-1.59691 -0.118278 -4.49101 
-1.10137 0.751932 -4.79331 
2.01019 0.834352 -5.95532 
-1.61214 1.6128 -4.70371 
-1.18195 -1.09629 -4.55324 
-1.11099 0.417331 -4.73821 
0.185319 0.152123 -4.88171 
1.89044 1.69942 -6.0421 
1.58485 1.32241 -5.87917 
-1.84697 -1.019 -4.32205 
-1.16932 1.08656 -4.8021 
-1.37319 -0.855522 -4.51652 
-0.382237 -0.586188 -4.42118 
0.359545 0.306139 -1.36035 
-1.14371 -0.3254 -4.63845 
1.86032 -0.598626 -5.68841 
-1.46262 0.990375 -4.67224 
2.04312 1.37694 -6.04565 
-1.15751 0.134759 -4.68844 
0.342435 0.258975 -11.6981 
-0.995744 -0.559302 -4.66726 
1.46091 -0.703693 -5.06326 
-0.73753 0.553281 -4.8927 
-1.27492 -0.740864 -4.55769 
-0.389917 -0.953721 -4.37489 
0.44942 -0.742801 -4.63543 
-0.55829 -0.345051 -4.5717 
-0.763044 1.65947 -5.02844 
-1.07165 0.0249741 -4.70769 
-1.31732 0.779949 -4.70483 
-1.66977 -0.151541 -4.46951 
-0.962731 0.247904 -4.77072 
-0.884342 1.22822 -4.92419 
-1.53133 0.809798 -4.6302 
0.548175 0.454041 -5.05189 
-1.08117 0.0411612 -4.69476 
1.58924 1.74701 -5.94246 
0.449528 -0.743921 -4.63584 
-2.33778 0.669656 -4.88361 
-0.761686 0.376634 -4.85524 
0.588831 0.289204 -4.96906 
0.740601 -0.593061 -4.84014 
0.521144 -1.0428 -3.61347 
0.285167 -0.220341 -4.8044 
2.47045 -0.592502 -5.86817 
0.334764 -0.968766 -3.71787 
-1.57005 -1.09073 -4.41486 
-0.848978 0.741098 -4.88283 
2.30199 1.58397 -6.16466 
-0.171247 1.58126 -5.24419 
0.560499 0.357207 -5.06389 
-0.238468 -0.17747 -4.79975 
0.290832 -0.331877 -4.80375 
-1.02879 -0.960887 -4.61996 
2.52706 0.876575 -6.09993 
0.762555 -0.905815 -3.72241 
-1.4001 -1.03689 -4.48012 
2.2279 0.428088 -5.97262 
-0.264367 -0.585605 -4.46913 
-1.21079 -1.09694 -4.54772 
-0.38336 -0.581704 -4.42025 
0.694036 0.153994 -5.05876 
-1.6866 -0.839708 -4.40814 
-1.92518 -0.549802 -4.32808 
-0.944015 1.70251 -4.9564 
-0.179889 1.56805 -5.24052 
-1.43299 -0.0971883 -4.56764 
-1.28437 -1.04679 -4.53229 
-1.33186 -0.39794 -4.56667 
-0.316497 -1.02832 -4.3693 
0.731055 -0.871336 -3.7253 
-1.93704 -0.850989 -4.30277 
1.92113 0.891403 -5.92188 
-1.20495 1.31821 -4.81569 
-1.23445 0.0610694 -4.65838 
0.651821 0.153434 -5.0437 
0.67364 -0.28149 -5.01588 
-1.57956 -0.403019 -4.48237 
-1.02663 0.977951 -4.83916 
1.22919 0.815019 -5.6587 
-0.824992 1.67437 -5.01544 
-1.63709 0.241333 -4.52246 
-0.615097 -0.798547 -4.29968 
1.30853 0.203593 -5.59446 
1.00247 1.68449 -5.70181 
-0.537362 1.75648 -5.127 
2.28217 1.54775 -6.18668 
-0.348454 -0.894722 -4.39174 
-0.185361 -0.0922598 -4.75938 
-0.463439 1.1784 -5.06894 
-1.80824 -1.02613 -4.33884 
-1.28545 -0.316643 -4.59006 
-0.463618 1.25868 -5.09189 
0.127316 0.673571 -4.82404 
-1.1081 0.309356 -4.72564 
-1.31081 0.610502 -4.67822 
-1.28712 0.977635 -4.74646 
1.94026 1.26871 -5.99381 
2.22192 -0.388454 -5.83058 
-0.576099 -0.259189 -4.59097 
-0.895782 1.54749 -4.96949 
0.591675 -0.348366 -4.96395 
1.23349 -0.216751 -5.38206 
0.643908 0.115042 -5.04167 
0.886982 -0.104647 -5.22498 
-1.39975 -1.19031 -4.38468 
-0.497098 -0.668189 -4.37373 
-1.37366 -1.00056 -4.48756 
-1.36948 -0.130953 -4.58272 
2.2141 0.0633456 -5.92442 
0.180435 0.812351 -4.8441 
-1.63763 -1.06746 -4.39165 
0.357648 -0.0706304 -4.95944 
-1.48348 -0.706049 -4.47162 
0.627139 -0.656737 -4.78737 
2.07515 0.849286 -5.97468 
-1.30636 -0.861492 -4.54218 
-1.47848 0.606464 -4.61832 
-0.632203 -0.191595 -4.56979 
-1.52535 -0.460614 -4.4862 
-0.462889 1.17909 -5.06762 
-1.70657 1.24702 -4.6128 
2.53735 -1.23869 -5.6517 
-0.856538 0.714817 -4.88149 
0.840036 -0.606563 -4.87051 
-0.91682 -0.487406 -4.70612 
-1.02644 0.960714 -4.83771 
-0.243974 1.56774 -5.21495 
-0.964206 0.252758 -4.76945 
1.2673 -0.432459 -5.21425 
-0.323734 -0.993979 -4.38216 
1.88128 0.899803 -5.89415 
0.645851 0.65964 -5.10125 
0.893873 0.440099 -5.28446 
0.783026 0.93775 -5.12477 
2.17846 -1.26099 -5.65671 
-1.57379 -0.709662 -4.44734 
-0.569984 -0.361303 -4.56135 
-0.363823 1.59614 -5.18022 
2.21035 -0.343364 -5.8608 
-1.40053 1.22368 -4.73152 
-1.26318 -1.03475 -4.53826 
-1.36853 -0.877562 -4.50049 
1.16017 -0.600829 -4.9787 
-0.200037 -0.180363 -4.81714 
-1.10047 -0.861857 -4.614 
-1.45193 -0.575946 -4.51663 
-0.550911 0.806929 -4.98639 
1.70902 -0.0576568 -5.70928 
-0.805388 0.695078 -4.88448 
-1.64993 1.38358 -4.6677 
-1.93508 -0.688647 -4.31703 
-0.103184 -0.291601 -4.84657 
-1.16886 1.40519 -4.82689 
-1.01631 0.00640057 -4.72637 
0.904531 -0.00265341 -5.25096 
-1.40356 1.2735 -4.73888 
-0.347106 -0.899194 -4.38975 
2.23521 1.10312 -6.0609 
-1.24027 -0.252111 -4.62069 
-0.727729 1.46975 -5.01786 
-0.959556 -0.594763 -4.68455 
-1.28914 -1.06109 -4.52604 
-0.620325 -1.00826 -4.27702 
2.11105 0.734734 -5.96922 
2.44105 -0.515589 -5.9199 
0.466678 1.72788 -5.49186 
-1.20462 -1.09804 -4.54451 
1.47584 1.62645 -5.88127 
0.690945 -0.319133 -5.01783 
1.69808 1.1494 -5.88956 
0.578722 -0.870219 -3.66656 
1.61677 -0.34795 -5.63985 
-1.56788 -1.09489 -4.4141 
0.676556 -0.206192 -5.01475 
0.139484 -0.963641 -3.80481 
-0.0304467 1.60805 -5.29856 
0.0355261 -0.630361 -4.56616 
-1.09327 1.34548 -4.86181 
2.00097 0.000951657 -5.82109 
-0.628919 0.739246 -4.95729 
-0.202433 -0.710368 -4.33658 
2.47176 -1.0901 -5.78272 
0.132539 -0.170938 -4.82354 
2.02522 -0.589754 -5.74908 
-1.53632 -0.364392 -4.49805 
0.995891 0.357448 -5.22412 
2.51235 -1.00793 -5.79073 
-1.191 0.576718 -4.73471 
-0.39048 -0.986745 -4.3625 
-1.27397 -0.992292 -4.52933 
-0.571957 1.01464 -5.00991 
0.107939 -0.134575 -4.8268 
-1.10522 1.08611 -4.82566 
2.46928 -0.777987 -5.83798 
0.115696 -0.210917 -4.82566 
-0.501003 -0.417676 -4.52444 
1.48916 0.746186 -5.73997 
1.34413 1.77007 -5.85237 
1.26706 0.364944 -5.62883 
1.48727 0.174693 -5.68014 
1.40477 0.757067 -5.71592 
1.82307 1.56223 -6.00372 
-0.0366568 0.89643 -4.88786 
-1.09274 -0.420184 -4.65487 
2.06048 -0.754668 -5.74496 
2.04153 0.0351512 -5.84516 
-1.13465 1.11451 -4.81169 
0.847578 -0.662161 -4.85967 
-1.24034 1.3665 -4.81054 
1.00604 -0.923844 -3.81438 
-0.386934 -0.976048 -4.36993 
1.55859 -0.14804 -5.64743 
-1.52554 0.925618 -4.64367 
2.28944 1.57316 -6.12445 
-1.30487 1.36479 -4.78418 
-1.22703 1.47575 -4.82753 
-0.904933 -0.172783 -4.74919 
0.651856 0.156265 -5.04064 
1.39591 -0.569961 -5.15775 
2.27145 0.981921 -6.07039 
-0.58994 -0.570044 -4.34184 
-0.803358 0.711174 -4.89096 
-1.11731 -0.482776 -4.63947 
0.0824305 0.976888 -4.90949 
-1.04607 -0.595528 -4.65219 
0.407541 -0.836877 -3.70787 
-1.40534 -1.19576 -4.38548 
-1.3844 -0.575043 -4.5418 
0.367872 -0.0175976 -4.89402 
-0.952849 0.74957 -4.83177 
-1.92134 -0.31703 -4.35597 
-1.18821 -0.375828 -4.61763 
-0.903281 1.32333 -4.94184 
-1.57777 -0.824535 -4.43756 
2.22278 -0.385024 -5.82247 
0.106712 0.202423 -4.83555 
1.78978 0.727087 -5.85316 
-1.6547 -1.07264 -4.40254 
-1.78892 -1.28596 -4.23333 
-1.51632 -1.03595 -4.44169 
-0.272576 -0.238399 -4.80024 
0.650459 1.84273 -5.61222 
-1.23679 -0.780606 -4.55934 
0.132943 0.725459 -4.82629 
-0.392047 -0.952839 -4.37376 
2.1179 -0.834414 -5.75328 
-0.0602244 0.902797 -4.88048 
-1.93769 -1.15908 -4.19114 
1.27192 0.759369 -5.6571 
0.0489167 -0.60132 -4.56745 
1.93181 0.132863 -5.82865 
0.371893 -0.185761 -4.8323 
0.883658 -0.253679 -5.1991 
-1.1175 1.38673 -4.85143 
0.208951 0.760254 -4.85655 
1.19486 -0.599135 -4.98695 
-0.914165 -0.275448 -4.73927 
-0.180109 0.38674 -4.88168 
-1.14136 1.07935 -4.81682 
-1.50455 -0.73766 -4.48685 
-1.65609 -0.433427 -4.44099 
0.500794 0.461272 -5.06046 
-1.07222 0.973889 -4.82248 
-1.11683 1.0981 -4.81639 
1.66462 -0.484488 -5.63486 
-0.646281 1.33973 -5.02469 
-0.140576 -0.527685 -4.50761 
-1.26453 -0.687965 -4.56966 
-1.19839 0.0533134 -4.66436 
0.650496 -0.669136 -4.785 
0.126612 -0.317286 -4.81782 
-1.04672 0.623591 -4.78882 
1.29559 0.750878 -5.68272 
1.29186 1.658 -5.816 
1.33525 -0.660164 -5.03111 
1.35222 0.762856 -5.69911 
1.30508 0.743029 -5.65746 
1.35238 0.767456 -5.71315 
-0.960403 0.00531053 -4.74352 
1.21332 0.472374 -5.60254 
-0.34783 1.49422 -5.16141 
0.427438 0.0178531 -11.6645 
1.61458 -0.0003589 -5.69023 
1.5486 0.460553 -5.73311 
-1.12044 -0.566461 -4.62186 
-0.534973 1.35859 -5.06746 
-1.61728 1.4114 -4.67013 
0.271951 -0.878146 -3.75604 
1.29915 0.84015 -5.6864 
-1.4221 -0.71876 -4.51555 
-1.21685 0.42396 -4.7015 
-0.0526401 0.388543 -4.94322 
-0.102257 -0.288584 -4.84529 
1.55795 -0.145305 -5.64828 
-0.551792 -1.25041 -4.23747 
-1.31922 0.714391 -4.69149 
-0.729438 0.361487 -4.85918 
-1.23292 0.159282 -4.66273 
-1.35635 -0.157306 -4.58882 
-1.26398 -0.261759 -4.60804 
-1.09883 1.26506 -4.84374 
-1.43469 -0.559324 -4.5139 
-1.29814 -0.326937 -4.58112 
-0.598336 -0.748859 -4.278 
-1.08862 0.703122 -4.78064 
1.8254 0.580289 -5.81791 
1.33625 1.79527 -5.85275 
-0.328373 1.69914 -5.2111 
-0.343624 -0.842434 -4.39385 
-1.57917 -0.403516 -4.47982 
-1.49104 -0.235285 -4.51554 
2.19608 -1.2111 -5.74951 
-1.4564 -0.354845 -4.51707 
2.13174 1.68739 -6.16175 
-1.12357 -0.405659 -4.64679 
1.68085 0.315035 -5.75814 
-1.26909 -0.449407 -4.55708 
-1.50014 0.919372 -4.66082 
-1.44275 0.0637879 -4.59234 
0.362914 -0.17124 -4.83826 
-1.80815 -1.02506 -4.33976 
-1.09397 0.232854 -4.72967 
1.44339 0.647419 -5.72298 
1.79689 0.312731 -5.79137 
-0.817596 0.948512 -4.91361 
-1.70333 1.22471 -4.61586 
-1.12056 0.779816 -4.78659 
0.486716 0.0986249 -4.9227 
2.57467 1.11025 -6.11921 
-0.46788 -0.573399 -4.39261 
-1.45148 -1.18895 -4.364 
-1.31895 0.714645 -4.69058 
-1.36221 -0.796337 -4.51781 
1.87961 0.867529 -5.90839 
-0.480499 -0.847081 -4.35145 
-1.11728 -1.03585 -4.58714 
0.549108 -0.898371 -3.64937 
-0.615032 -0.798783 -4.3004 
-0.574836 1.16399 -5.02899 
-1.10961 0.343556 -4.72652 
-0.616853 -1.0177 -4.27599 
-1.29605 0.759161 -4.72956 
-1.15284 -1.07303 -4.57045 
1.29953 -0.930359 -3.92473 
1.68096 -0.562097 -5.63711 
-1.73671 -0.375922 -4.42266 
0.472925 1.75525 -5.50935 
0.784522 0.94778 -5.11181 
0.932753 -0.588174 -4.87515 
-0.950721 1.32356 -4.91751 
0.350124 -0.656512 -4.67633 
-1.12765 0.177509 -4.70096 
-0.329014 -1.01579 -4.38238 
1.41176 1.61331 -5.86803 
-0.415496 1.258 -5.10706 
-1.05293 0.944821 -4.834 
-1.91721 0.179056 -4.4097 
-0.145205 0.0475141 -4.86962 
0.84126 1.70056 -5.66075 
-0.0997766 1.73976 -5.29176 
-1.61198 1.52082 -4.68391 
-1.21527 1.19775 -4.78714 
-1.12924 -0.954612 -4.58025 
0.652408 0.158031 -5.04423 
-0.713301 1.71517 -5.0582 
-1.10624 -0.416794 -4.64895 
2.04245 -0.985324 -5.71452 
2.52941 -0.381827 -5.88839 
-1.408 1.52529 -4.76353 
-0.233486 -0.555969 -4.47578 
-0.539662 1.38614 -5.06986 
-1.0847 -0.716354 -4.63234 
-1.5763 0.834179 -4.61017 
-0.737439 0.368249 -4.86072 
0.14735 -0.97691 -3.79877 
1.46597 1.61124 -5.88531 
2.23072 -1.06756 -5.75989 
0.949982 1.80603 -5.70219 
-1.29267 0.785642 -4.71676 
-0.566785 -0.35303 -4.56812 
1.31925 -0.199458 -5.2971 
0.888688 -0.679532 -4.86699 
-0.55892 -0.290686 -4.57248 
-1.53426 0.610499 -4.60535 
0.323743 -0.91197 -3.73106 
-1.11135 0.327045 -4.7251 
0.879939 -0.920338 -3.77139 
-0.327996 -1.01626 -4.38072 
-1.65343 -0.695211 -4.42674 
2.2523 1.28482 -6.13662 
-1.81652 -0.996522 -4.33448 
0.327384 -0.297559 -4.79856 
-0.561993 1.78246 -5.12509 
1.61482 -0.00702934 -5.69917 
0.226239 -0.453867 -4.7531 
-0.146482 -0.511646 -4.72268 
0.286858 -0.913998 -3.74865 
-1.66006 0.367234 -4.52769 
1.14581 -0.877235 -3.87166 
-1.28966 1.29426 -4.77791 
-0.464517 1.43556 -5.11547 
-1.33345 -0.39575 -4.54733 
1.33201 -0.696783 -5.03211 
-1.11272 -0.705652 -4.60709 
-1.04234 1.70675 -4.93109 
-1.17879 -0.336531 -4.62062 
-1.23269 -1.04548 -4.54724 
-0.846787 -0.363308 -4.74289 
-1.74713 -0.552579 -4.40358 
-1.1797 -0.336119 -4.62331 
-1.54088 -0.39361 -4.49954 
1.89597 0.282587 -5.81306 
-0.318328 1.11144 -5.12099 
-1.84986 -0.0508951 -4.40844 
-0.936759 -0.148887 -4.74309 
-0.963633 1.71602 -4.96741 
-0.590652 1.45572 -5.05887 
-0.286289 -0.733922 -4.37633 
-1.62537 0.849943 -4.60111 
2.47197 -0.670865 -5.85066 
2.44977 -1.29604 -5.70749 
1.24727 0.838699 -5.67153 
-1.56601 -1.06402 -4.42315 
0.718931 -0.0439057 -5.0508 
-0.221356 -0.0262826 -4.82757 
0.490811 0.260079 -5.04485 
0.179067 -0.109841 -4.84796 
-1.6222 -0.139509 -4.47402 
-1.26428 -0.261611 -4.60538 
2.4484 -0.713815 -5.88823 
1.26973 0.671485 -5.6599 
1.73301 -0.687875 -5.65444 
2.02749 -1.19126 -5.68089 
-0.0184638 1.62271 -5.30322 
-1.11256 0.969265 -4.81119 
-1.54846 -0.707564 -4.46008 
-0.0582872 -0.600067 -4.53537 
0.926941 -0.172003 -5.16925 
1.76885 -0.455174 -5.68315 
2.4331 -0.366864 -5.89071 
-0.551157 -1.25003 -4.23492 
1.54061 0.458814 -5.72187 
-1.09689 1.09258 -4.82727 
-1.00637 0.258694 -4.74799 
-1.81194 -1.05513 -4.33079 
1.12699 -0.992877 -3.85725 
-1.11823 1.39189 -4.85396 
0.0461485 -0.545233 -4.57923 
-1.01879 -1.00109 -4.62527 
-0.440511 1.62375 -5.14219 
-0.73876 0.386291 -4.8766 
-0.69259 1.46798 -5.04417 
-0.122221 1.56598 -5.26503 
2.28224 1.39565 -6.13197 
0.914637 -0.679712 -4.88315 
-1.2194 -0.548813 -4.58732 
-0.463244 -0.518215 -4.39324 
2.03786 0.295692 -5.87511 
-1.66602 -1.04831 -4.39447 
-1.27453 -0.412111 -4.59097 
-1.53284 -0.799159 -4.45708 
-1.54135 1.00037 -4.64537 
-1.69517 0.087192 -4.49558 
-1.28219 -0.268644 -4.59528 
-1.33745 -1.0114 -4.50137 
-1.37185 -0.999958 -4.48658 
-1.93363 -0.702281 -4.31164 
-0.355995 -0.588815 -4.41344 
1.84193 1.13557 -5.9247 
-1.21376 -1.05081 -4.55761 
-0.217353 1.46795 -5.20501 
-1.12782 0.0889399 -4.69804 
-0.699234 1.40582 -5.01904 
-1.41396 0.463824 -4.63074 
-0.0238402 -0.598359 -4.53897 
-1.29693 -0.250756 -4.61766 
1.02549 1.5539 -5.69844 
0.278389 0.323862 -4.85225 
1.34389 1.76764 -5.84978 
1.14164 -0.963612 -3.86481 
-1.20548 0.510818 -4.71495 
0.56072 -0.710756 -3.62206 
2.18146 -1.26502 -5.64412 
0.107806 -0.191727 -4.82241 
-0.913542 0.733139 -4.84898 
0.392432 -0.765134 -4.62212 
-0.273268 1.41166 -5.18168 
-0.813401 1.73109 -5.01862 
-1.08133 -0.27332 -4.67504 
1.46924 -0.754257 -5.06835 
-1.75102 -0.983813 -4.36053 
-1.73793 1.20745 -4.59726 
-1.29481 0.757386 -4.72198 
-1.22625 1.16941 -4.79242 
-0.415526 1.59079 -5.15804 
-0.14533 0.0606294 -4.86945 
-0.913694 1.6452 -4.97333 
-0.606497 1.27217 -5.03295 
-1.57544 0.0838259 -4.53314 
-1.8965 -0.684725 -4.3245 
0.151736 -0.812888 -3.81065 
-1.41548 1.29923 -4.73928 
-1.10035 0.955615 -4.81 
-1.3971 0.964645 -4.69986 
1.89185 1.74001 -6.05452 
-0.738036 1.43874 -5.0086 
-1.33419 0.967736 -4.71071 
0.448346 -0.761329 -4.63992 
-1.13751 1.68909 -4.88526 
2.59847 1.08638 -6.14267 
0.408162 1.79649 -5.48113 
-1.49939 -0.951403 -4.45159 
1.98848 0.42136 -5.88558 
1.47256 1.47332 -5.85726 
-1.86621 -0.21885 -4.387 
-1.06877 -0.577238 -4.6503 
-1.26645 -0.726246 -4.56759 
1.48096 1.70443 -5.91585 
-0.943937 -0.42832 -4.70751 
-0.604939 1.17988 -5.03445 
-0.62796 0.69793 -4.9591 
0.493113 1.2388 -5.0272 
-1.55682 -0.184111 -4.50471 
-0.043382 -0.626808 -4.53765 
-0.583623 -0.904382 -4.30646 
-0.710735 1.20961 -4.98295 
-1.10489 -0.882276 -4.59952 
-0.941138 -0.865996 -4.65958 
0.639363 -0.0286111 -5.03365 
2.29464 1.66188 -6.17938 
-1.32881 0.597979 -4.67582 
0.325343 -0.794694 -3.74621 
-0.942537 -0.395636 -4.70424 
1.39267 0.80989 -5.72835 
-1.01005 0.98057 -4.85196 
2.20878 -0.866225 -5.77852 
-0.0374074 1.62278 -5.30138 
1.57283 0.979473 -5.81385 
0.412082 -0.777556 -3.69699 
0.001062 1.81833 -5.34127 
-0.512497 1.54417 -5.10896 
-1.44749 0.977495 -4.68088 
-0.531795 -0.363018 -4.55981 
-0.57428 -0.829765 -4.31142 
-0.315525 -1.1546 -4.32811 
-1.71739 0.63721 -4.53757 
-0.507899 1.70032 -5.12757 
-1.11345 0.744861 -4.7828 
0.960657 -0.86293 -3.80386 
-1.2718 1.41423 -4.79992 
-1.57766 1.5339 -4.69638 
0.327531 -0.00283648 -4.92932 
-0.968074 1.37152 -4.91866 
-1.36937 -0.179772 -4.56618 
-1.67817 1.30886 -4.63433 
-1.17387 -0.342766 -4.62427 
0.678535 -0.101364 -5.03706 
-0.890526 -0.484234 -4.71279 
2.47081 -0.660065 -5.8665 
-1.11341 -0.467639 -4.64096 
-1.88171 1.25671 -4.55162 
-1.68246 0.133451 -4.50083 
-1.85861 0.10991 -4.4266 
1.49643 1.45478 -5.86109 
0.326121 -0.711955 -4.6603 
1.7087 0.0150962 -5.7136 
-1.01748 -0.266547 -4.70752 
-0.685655 1.48807 -5.03647 
-0.821537 0.41239 -4.83702 
-0.144899 -0.627298 -4.50541 
-1.23729 -1.06273 -4.54954 
0.605397 -1.08662 -3.6058 
-0.318815 -0.781696 -4.37417 
0.195099 0.397648 -4.91239 
1.61116 1.56591 -5.91544 
-1.88705 -0.775949 -4.32715 
0.323898 -0.251351 -4.80831 
0.26327 -0.592516 -4.65192 
2.05255 -1.28232 -5.60957 
-1.09672 1.45292 -4.87516 
-0.417285 1.30264 -5.1043 
0.396435 0.130455 -4.98362 
-1.93103 -0.83216 -4.3041 
-0.0919821 -0.590924 -4.52166 
-1.28835 0.963559 -4.76696 
-1.17653 -0.120948 -4.654 
-0.576854 0.369952 -4.92293 
-1.97441 0.711024 -4.49069 
-1.61823 1.4814 -4.67887 
1.70721 -0.235672 -5.68781 
-1.21649 1.21825 -4.79503 
1.31668 -0.413763 -5.23447 
0.155354 0.81359 -4.8331 
1.82405 -0.774698 -5.65458 
-0.680784 1.29665 -5.01133 
0.395026 -0.652192 -4.69195 
-1.39557 0.0293703 -4.58848 
0.391898 -0.58285 -4.68856 
-0.524752 1.26792 -5.06819 
-1.15091 0.970489 -4.80342 
-0.258317 -0.528936 -4.46467 
2.5393 -0.217393 -5.91796 
-0.0041471 -0.628681 -4.55378 
0.72535 -0.74071 -4.74076 
-0.305075 1.72043 -5.22581 
0.344415 0.655528 -4.999 
2.46215 -1.01862 -5.80674 
-1.32517 -0.814775 -4.52972 
2.10533 -1.22727 -5.65859 
-1.37889 -1.07895 -4.48747 
2.20874 -1.22264 -5.69862 
0.170644 -0.554975 -4.62308 
-1.76383 -0.0928568 -4.43522 
-1.60383 0.626444 -4.58361 
-0.14438 1.45129 -5.23192 
1.36121 0.32936 -5.64171 
-1.1254 -0.498664 -4.63614 
-2.35084 -0.906212 -4.56836 
-0.973101 -0.269289 -4.7152 
-1.38048 -0.212229 -4.56511 
-0.291691 1.69836 -5.21264 
-1.43355 1.61761 -4.76761 
-1.34465 -0.587561 -4.55022 
-1.32664 1.10629 -4.73816 
1.85658 0.6357 -5.85295 
0.687014 0.801303 -5.03385 
2.10214 0.879635 -5.99432 
0.0253675 -0.502355 -4.66712 
-0.482488 1.44883 -5.10564 
-0.94421 0.915351 -4.87158 
-1.35943 0.454642 -4.65395 
-0.222892 -0.236077 -4.80566 
1.69791 -0.336906 -5.67306 
-1.09156 1.14652 -4.84387 
-1.02135 -0.933525 -4.62834 
-1.43823 -1.0682 -4.46641 
-1.79555 -1.28278 -4.23843 
-0.513293 1.44399 -5.0927 
0.55252 -0.656202 -4.75512 
-1.70699 0.17766 -4.48802 
-1.21687 -0.119105 -4.63776 
-1.30085 1.05941 -4.74115 
-0.821585 -0.149194 -4.78516 
-0.27988 -0.616214 -4.4547 
-1.64988 0.808087 -4.57938 
-1.32079 -1.05309 -4.51019 
-0.887998 1.54351 -4.97417 
-1.21939 0.984518 -4.7752 
-1.41022 0.104931 -4.59505 
-1.45766 -0.0988054 -4.5534 
-1.79725 0.667147 -4.50669 
-0.191974 -0.0709278 -4.76449 
-1.0143 -0.595549 -4.66422 
-1.68909 -0.822512 -4.40031 
-1.12564 -0.863531 -4.6078 
0.844039 -0.668779 -4.86042 
1.44633 -0.704405 -5.06171 
-0.964865 0.729321 -4.83375 
-1.10037 1.26707 -4.84905 
-1.87767 -0.830063 -4.33411 
0.882493 1.72237 -5.66645 
-1.46136 -0.394128 -4.52558 
0.577237 -1.08752 -3.59775 
0.29151 0.606239 -4.95925 
0.0536235 -1.08982 -3.81325 
-1.37633 -0.873558 -4.50366 
-1.21791 1.14415 -4.79104 
-0.527165 0.523498 -4.97025 
-1.65755 1.43254 -4.66076 
0.701623 1.71576 -5.61236 
-1.82828 1.24633 -4.57072 
-0.055868 0.885428 -4.89058 
1.74487 0.979182 -5.87104 
-1.68799 -0.692025 -4.4062 
-1.11788 -0.473828 -4.63396 
-1.19083 1.5498 -4.86702 
0.846282 -0.638134 -4.86395 
-1.6591 0.0726919 -4.49902 
0.0256253 -0.515934 -4.6494 
0.290373 -0.861938 -3.7533 
1.82651 -0.360067 -5.72154 
-1.70207 1.62104 -4.67453 
1.14927 1.37197 -5.72718 
-1.18409 0.237767 -4.68604 
-0.71713 0.393704 -4.87417 
-0.788711 0.386456 -4.85357 
-0.580823 0.207132 -4.53638 
2.29703 1.60344 -6.18794 
-1.0783 -0.878858 -4.62274 
1.26374 -0.585436 -4.97867 
0.154043 -0.801804 -3.81938 
-0.716635 0.690743 -4.9179 
-1.46572 -1.07882 -4.45594 
-0.485017 0.514724 -4.98295 
-1.91364 -0.682307 -4.32423 
-1.5184 -0.575209 -4.48965 
0.250652 -0.614296 -4.64539 
2.08212 -0.740806 -5.74521 
1.74012 1.59298 -5.98193 
-1.66243 0.226601 -4.5146 
0.0918287 -0.00665699 -4.8427 
1.67983 1.29078 -5.90498 
-0.828042 0.749267 -4.88818 
-1.68945 -0.19453 -4.45652 
-0.613372 0.927515 -4.98341 
-0.96513 0.723448 -4.83171 
-0.561512 0.681491 -4.97729 
-0.968572 1.37094 -4.91989 
-1.39446 1.31714 -4.7504 
-0.838577 1.66458 -4.99846 
0.845053 -0.176708 -5.19008 
1.93787 1.07372 -5.96287 
0.523291 -0.577365 -4.73135 
0.984739 1.65973 -5.69899 
0.356874 0.00758688 -4.91076 
0.761294 -0.870213 -3.73092 
-0.350122 -0.131154 -4.77694 
-0.769177 1.61862 -5.01254 
0.456227 -0.591349 -4.72484 
-1.36218 -0.934767 -4.49951 
0.73586 -0.81863 -3.72584 
-1.49967 -0.951631 -4.45311 
1.80368 -0.862871 -5.63762 
-1.87525 0.343263 -4.44274 
-0.560251 -1.11333 -4.25969 
-1.56489 -0.850294 -4.45609 
-2.00908 -1.15888 -4.16878 
1.8797 1.25076 -5.97249 
-0.220952 -0.780099 -4.36942 
1.75188 0.782054 -5.85002 
1.78447 1.31526 -5.96874 
-0.0625312 1.56308 -5.28124 
-0.069698 -0.150966 -4.87596 
-1.06594 -0.414073 -4.66833 
-0.842336 1.64514 -5.00673 
-1.23261 0.644323 -4.71588 
-1.06646 1.53198 -4.90106 
-1.21308 1.27134 -4.81375 
2.26767 -1.25989 -5.676 
2.25574 1.04227 -6.07777 
-1.01116 0.984253 -4.84603 
-1.05773 0.128133 -4.72175 
-0.621113 1.28776 -5.03079 
0.0290206 -0.421983 -4.72372 
-1.40032 -0.105991 -4.57973 
-1.42097 -0.571168 -4.52745 
-1.45092 -0.687595 -4.49575 
-0.462775 1.78384 -5.16783 
-0.63353 -0.285258 -4.54691 
-0.0718644 0.983778 -4.88094 
1.81421 -0.182209 -5.73261 
-0.559255 -0.600615 -4.35244 
2.20268 -0.688099 -5.80932 
0.0266525 -0.491637 -4.67193 
2.4896 0.326541 -6.03178 
-1.04219 -0.133715 -4.70544 
0.193939 -0.7887 -3.80061 
-0.522704 1.26339 -5.07245 
-1.05533 1.47086 -4.88891 
-1.41484 0.464037 -4.6346 
-1.64188 1.41961 -4.66723 
-1.48784 -0.167447 -4.52687 
-1.23407 -0.847545 -4.57884 
2.2701 1.702 -6.18592 
-0.37825 -1.10971 -4.35443 
-1.38066 -0.190208 -4.56664 
-1.40137 -0.871424 -4.49154 
0.548863 -0.622723 -4.75469 
0.66387 1.76046 -5.59005 
-1.36297 -1.01375 -4.49322 
-1.8728 -0.704538 -4.33967 
2.54236 1.01282 -6.13397 
0.66701 0.6567 -5.05452 
0.293335 1.42323 -5.10206 
-0.982416 1.05187 -4.86284 
0.733345 0.752553 -5.04448 
-1.11134 0.940048 -4.80649 
2.24982 0.641311 -6.00448 
1.06031 1.75958 -5.75582 
1.86088 -0.570445 -5.70016 
2.54518 1.05622 -6.13876 
1.26999 -0.592478 -5.01925 
1.95822 0.673818 -5.90949 
-1.89237 1.48721 -4.56972 
-0.581838 1.2791 -5.04057 
0.876047 -0.585618 -4.87537 
-1.82959 -1.17612 -4.22559 
-1.47317 0.242922 -4.58614 
0.338083 -0.876514 -3.73207 
0.326318 -0.711118 -4.65867 
-1.09949 0.586877 -4.76295 
2.25428 0.961501 -6.06877 
0.305448 -0.893259 -3.74251 
-0.956294 0.266132 -4.76952 
-0.982194 0.347435 -4.77527 
-1.28653 -0.861935 -4.54481 
-0.549541 -0.971582 -4.31506 
0.914539 1.78522 -5.69615 
-1.81242 0.510508 -4.48872 
-0.176643 0.0953014 -4.86043 
2.03168 -0.503416 -5.76595 
-0.595816 0.891748 -4.98649 
1.12908 1.28621 -5.68792 
1.2671 0.786905 -5.66911 
-0.546764 0.932578 -5.0087 
-1.40037 0.962617 -4.69984 
-0.622277 -0.624252 -4.33023 
2.26428 1.17121 -6.11121 
-1.60001 -0.367813 -4.46873 
0.680355 -0.670427 -4.79339 
1.08784 -0.228467 -5.29587 
1.70676 0.172127 -5.74181 
-0.984097 -0.27733 -4.71303 
-0.946379 -1.02509 -4.64834 
-0.647007 -0.00822301 -4.57339 
1.38583 -0.0226542 -5.19204 
-0.0285655 -0.623448 -4.54072 
-1.62477 -0.141824 -4.49004 
-0.860046 1.07405 -4.90737 
-1.22436 1.38089 -4.82081 
2.19941 -0.582213 -5.8268 
1.34431 1.59901 -5.83398 
0.898575 -0.15491 -5.18035 
2.52306 -1.01602 -5.7635 
1.21308 1.54639 -5.76931 
-1.85726 0.114185 -4.42564 
-1.71349 1.25586 -4.60497 
1.70264 -0.168073 -5.68937 
-0.541001 1.28508 -5.06208 
-1.31411 -0.387849 -4.56811 
-0.552062 -1.22918 -4.23742 
-1.78321 -1.0254 -4.34964 
1.26189 1.75794 -5.82429 
1.45678 -0.300094 -5.5759 
-0.986009 -1.0255 -4.64047 
-1.19401 -0.239779 -4.65524 
-0.926975 -1.10371 -4.63587 
-1.15161 1.14562 -4.81636 
2.27033 1.17287 -6.12055 
0.651386 -0.172564 -5.03037 
-0.719706 0.524719 -4.89939 
-1.26226 1.62412 -4.83271 
1.60088 0.752378 -5.79338 
-1.64359 0.143688 -4.51368 
-1.092 -1.03457 -4.59411 
-1.27886 0.625378 -4.69697 
-0.848295 1.56692 -4.98841 
1.64728 1.48413 -5.92542 
-0.0764494 0.418129 -4.92652 
1.6902 0.299076 -5.75712 
0.10165 -0.805496 -3.82918 
2.46093 -1.17444 -5.78747 
-1.37209 0.802927 -4.69273 
-1.50801 1.43278 -4.70972 
1.25964 -0.681836 -4.99897 
-1.03615 0.0285209 -4.72837 
-0.203379 0.418826 -4.84022 
-1.25648 1.37902 -4.80087 
-1.10097 -0.690703 -4.62003 
-0.285772 -0.514329 -4.45646 
0.806434 0.846066 -5.10307 
-0.167022 -1.01854 -4.28541 
-1.76671 -0.206321 -4.42384 
-1.25466 1.37726 -4.79872 
2.28788 1.34763 -6.12843 
-1.26109 -0.390498 -4.5869 
0.930313 1.73659 -5.68765 
0.918126 -0.339424 -5.21921 
-1.09682 -0.440959 -4.64239 
-0.66435 0.999984 -4.98227 
-1.11677 0.0459258 -4.69552 
-1.38108 -0.190053 -4.56806 
-1.41161 -0.106249 -4.57026 
2.45747 0.353612 -5.98417 
1.86342 -0.480956 -5.7185 
-1.35897 -0.424681 -4.553 
0.67657 -0.0717611 -5.0391 
-1.68746 -0.166441 -4.462 
2.23113 0.105188 -5.91861 
2.49568 -0.991083 -5.77955 
1.53367 -0.192393 -5.62458 
0.680608 0.611662 -5.0233 
-0.816487 0.845799 -4.89377 
-1.56589 -0.0971459 -4.51138 
-1.37127 -1.10403 -4.48118 
1.2329 1.04181 -5.69057 
-1.29467 1.11634 -4.7571 
1.67155 0.0227829 -5.70162 
-1.08874 -0.721214 -4.62873 
0.0736783 1.81522 -5.37756 
-1.82261 -0.260086 -4.4004 
-1.04556 -1.04593 -4.61553 
-1.0118 -0.475254 -4.67106 
-0.94954 -0.582004 -4.68943 
0.987222 1.57696 -5.67742 
-1.46376 0.264412 -4.59617 
-1.36167 -0.570175 -4.55052 
-1.23285 0.643952 -4.71551 
-0.665233 0.488754 -4.90977 
-1.11303 -1.00057 -4.58506 
-0.97973 -0.468878 -4.68108 
2.05561 -0.605163 -5.74482 
1.16001 1.00065 -5.65838 
-0.952895 0.269069 -4.77461 
0.448554 0.118371 -4.93668 
0.586959 -0.966425 -5.61555 
-1.33593 -0.43372 -4.56276 
1.05311 0.169865 -5.30836 
1.92721 0.738331 -5.91621 
-0.52624 0.535666 -4.97274 
-0.614549 1.03805 -4.9927 
1.95993 0.729454 -5.91125 
1.24856 -0.543139 -5.11894 
-0.92705 -0.273789 -4.73118 
-0.14077 -0.542116 -4.5118 
-1.72832 -0.339611 -4.42355 
-1.06196 -0.473085 -4.66124 
-0.26185 0.182298 -4.84364 
-1.9389 -1.14721 -4.20796 
-1.10122 -0.691893 -4.61939 
-0.964079 0.0139501 -4.75066 
-0.398874 0.272498 -4.69757 
2.45099 -1.29216 -5.58697 
1.78289 0.81215 -5.85849 
0.0359076 -0.550794 -4.59133 
2.24577 0.73904 -6.03874 
1.89792 -0.504122 -5.7106 
-0.69054 1.1995 -4.98417 
1.14923 0.934018 -5.64879 
-1.46594 -0.233321 -4.52845 
-0.828153 0.711268 -4.87974 
-1.05899 1.46741 -4.88745 
-1.4971 -0.27063 -4.51222 
-1.35407 -0.12644 -4.59469 
1.25232 1.78646 -5.81155 
1.5146 1.43821 -5.8552 
-1.0254 0.228606 -4.76672 
-1.26351 0.77036 -4.72978 
1.34494 1.7406 -5.85053 
0.0368536 -0.416747 -4.75646 
-0.986194 0.722337 -4.81191 
-1.76568 -0.338093 -4.40961 
-1.89523 1.45265 -4.57032 
-1.18459 0.237356 -4.68701 
-0.641679 1.60491 -5.06791 
1.0399 1.40561 -5.68284 
-0.654802 1.05494 -4.9901 
-1.61343 0.644108 -4.57576 
-1.79456 -0.698632 -4.36955 
1.57041 0.831827 -5.79378 
-1.42669 -1.18624 -4.37405 
-0.445105 -0.53878 -4.40293 
-0.471508 -0.613862 -4.39034 
1.05711 -0.605317 -4.94157 
-1.15556 0.0518776 -4.67295 
-1.06617 1.53527 -4.90095 
0.981786 0.567592 -5.25736 
-0.0489447 -0.600143 -4.55209 
-0.0506092 0.634168 -4.9722 
-1.3252 1.18504 -4.7531 
-1.56208 -1.00943 -4.42505 
1.51921 1.16232 -5.82196 
0.922058 -0.964984 -3.78567 
0.453471 -0.86251 -3.66853 
0.631541 -0.311855 -4.99066 
-0.279774 -1.17145 -4.33571 
-1.46392 0.261386 -4.59554 
-1.58863 0.804458 -4.6111 
-1.13735 1.4111 -4.84167 
-1.65688 1.04978 -4.60486 
-1.02411 -0.394716 -4.67861 
-1.0342 -0.43227 -4.66701 
1.45231 1.52488 -5.84947 
2.27011 1.05399 -6.06602 
-1.33846 1.38871 -4.7646 
-0.412522 1.3816 -5.11988 
1.55235 -0.319054 -5.62228 
-0.191195 1.5323 -5.22699 
-0.762341 0.749801 -4.91072 
-0.676437 1.17982 -4.99144 
-1.13133 -0.208602 -4.65569 
1.55496 -0.21594 -5.64 
1.53732 1.14963 -5.82316 
0.0417849 1.01461 -4.94024 
-0.759762 0.53656 -4.88187 
-0.853501 0.485268 -4.83806 
-0.119026 -0.554346 -4.52052 
-0.69555 0.760592 -4.92729 
-1.3749 0.445366 -4.62877 
1.62468 -0.526047 -5.61506 
0.475949 -0.592633 -4.72958 
-1.293 1.14566 -4.75289 
-0.677027 0.469353 -4.89946 
-0.814023 1.73116 -5.0198 
1.05488 -0.641702 -4.9409 
-1.54327 -0.843713 -4.45489 
1.28936 -0.877494 -3.92398 
-1.15568 1.66276 -4.87987 
1.82793 0.309933 -5.75715 
-0.480296 1.77862 -5.16717 
-1.12929 0.92712 -4.79942 
-0.604391 0.833688 -4.97689 
0.700442 1.71113 -5.60205 
-1.50364 0.0755405 -4.55392 
0.886852 0.404834 -5.27711 
-0.642049 1.48646 -5.05636 
0.382572 -0.277949 -4.77846 
2.25652 1.4231 -6.12068 
-1.02372 0.249788 -4.74881 
2.47728 -1.05094 -5.79703 
-1.01652 0.26693 -4.76075 
0.950828 0.344787 -5.25234 
0.178226 -0.893451 -3.80372 
-0.219579 -0.556935 -4.47333 
-0.858496 1.67856 -4.99978 
0.457045 1.78831 -5.50663 
0.557392 0.564755 -5.09394 
-0.406902 1.15896 -5.08556 
-0.866368 -0.270859 -4.7514 
-0.193773 0.396599 -4.86789 
-0.777381 0.76385 -4.90058 
1.74235 0.160272 -5.75118 
-0.272901 1.72176 -5.24219 
-1.16694 0.436783 -4.72651 
2.2304 0.680701 -5.99396 
-1.54237 -0.790296 -4.44892 
-1.03077 -0.642534 -4.64895 
-0.958642 -0.0332407 -4.73331 
2.18826 -0.975889 -5.779 
1.59787 0.762643 -5.79102 
0.115105 0.0889967 -4.85448 
-0.199716 -0.125026 -4.76026 
-1.04958 0.992059 -4.82936 
-0.945494 -0.443705 -4.69933 
-1.33205 0.314994 -4.65293 
-0.99574 0.357688 -4.77489 
-1.19006 -0.123595 -4.64964 
0.495388 -0.77813 -3.66547 
1.86111 -0.10948 -5.75285 
-1.21832 -0.743978 -4.56842 
-1.35385 -0.94819 -4.5089 
-1.30676 -0.876509 -4.52417 
-1.32979 0.98069 -4.73831 
-1.24763 -0.72505 -4.57369 
1.59767 0.0197975 -5.68905 
1.18107 -0.583189 -5.00248 
1.87736 1.72962 -6.05692 
1.72001 0.0491745 -5.76073 
0.826077 -0.791202 -3.76264 
-1.32906 1.12347 -4.73722 
1.21402 1.22857 -5.71593 
-0.97483 -0.480113 -4.68656 
-1.09834 -0.685846 -4.61777 
0.358036 -0.612653 -4.6916 
-1.16507 -0.246036 -4.64671 
-0.663589 0.998484 -4.98097 
-1.12847 1.71016 -4.90881 
2.17134 -1.19058 -5.84811 
-0.602577 1.21024 -5.0217 
1.68367 1.33037 -5.91984 
1.96615 -0.00312457 -5.81806 
-0.506251 1.53755 -5.10908 
1.33617 -0.43398 -5.24491 
0.194406 -0.838725 -3.79655 
1.03967 -1.08194 -3.76027 
-0.370241 1.21864 -5.11069 
1.11518 1.38636 -5.7104 
1.621 0.834369 -5.78296 
-0.572889 0.057217 -4.535 
-0.41853 1.25766 -5.10417 
0.327012 -0.572582 -4.72251 
-1.15509 1.16587 -4.81504 
-0.947999 0.928436 -4.86627 
1.88967 -0.0198314 -5.77284 
1.46483 0.736445 -5.73805 
-1.90813 -0.251563 -4.36735 
-0.34389 1.48619 -5.15634 
-1.18186 0.597723 -4.73736 
-1.12254 1.11489 -4.81643 
-0.974317 1.41712 -4.93152 
1.25857 -0.690688 -4.99041 
1.97032 -1.2191 -5.63844 
-1.0986 1.37691 -4.86505 
1.03652 1.79809 -5.73164 
1.61242 -0.464492 -5.63141 
1.83639 -0.0241956 -5.76084 
1.78285 0.811773 -5.85801 
2.45314 -0.719574 -5.8731 
-0.332913 -0.649912 -4.43313 
1.60561 1.6413 -5.91358 
0.902437 0.0148939 -5.26006 
1.98288 1.26107 -6.00638 
-0.974124 1.41398 -4.92064 
-1.49527 -1.02662 -4.45284 
2.6009 0.998394 -6.06803 
-0.611513 -0.989347 -4.29229 
-0.879712 0.734509 -4.86968 
-1.91275 -0.0194891 -4.39076 
-1.80475 -1.30829 -4.2295 
-0.115711 1.582 -5.25892 
0.645205 0.773369 -5.08076 
1.69659 -0.657369 -5.62542 
-1.02187 0.620902 -4.79642 
-1.42397 0.485077 -4.62838 
-0.928097 1.23361 -4.90943 
-1.6137 1.53472 -4.6847 
-1.25321 -0.785068 -4.55902 
-1.89314 -1.01695 -4.30473 
-0.828757 0.518005 -4.8447 
0.680816 -0.033807 -5.0428 
-1.8556 1.22839 -4.55532 
-1.0209 0.0392861 -4.72171 
-1.07668 -0.254367 -4.67872 
-1.13835 1.41704 -4.84957 
0.0849327 -0.565825 -4.58807 
-0.836933 0.392797 -4.83872 
-1.67042 -0.417198 -4.44155 
-1.14216 -0.471361 -4.63736 
-1.54144 0.965879 -4.64669 
1.59007 1.3058 -5.87064 
1.74428 0.149562 -5.76316 
-1.49891 1.21243 -4.69047 
-0.115992 1.57865 -5.26137 
2.56699 1.50093 -6.23242 
-1.52093 1.19134 -4.68319 
0.286792 -0.608635 -4.65889 
1.59096 0.841978 -5.79227 
-1.57954 -0.172101 -4.4942 
-0.888022 0.0126035 -4.78237 
-1.74629 -0.0927867 -4.44596 
-1.79228 -0.844833 -4.37247 
1.27481 -0.484337 -5.17266 
-1.91623 -1.31942 -4.18069 
-1.70675 -0.830644 -4.39252 
-1.60129 0.267143 -4.54773 
-0.94186 0.187404 -4.76765 
-1.07335 0.222448 -4.73429 
-1.10163 -0.428653 -4.63965 
-0.602691 -0.999634 -4.28914 
-0.43929 1.29829 -5.10004 
-1.19077 1.08257 -4.79988 
-1.14163 1.17676 -4.81254 
-1.45523 1.55988 -4.74507 
0.165727 -0.640585 -4.62271 
0.30567 -0.89043 -3.74149 
1.04927 0.154138 -5.30511 
-1.89636 -0.274252 -4.36728 
-0.912512 0.0545428 -4.77089 
0.554629 1.76789 -5.55344 
-0.41911 1.13851 -5.08648 
-1.66101 0.48594 -4.53044 
-0.314808 -0.515045 -4.45931 
0.389225 -0.262705 -4.78177 
1.39433 1.84232 -5.88808 
1.12051 -0.156685 -5.28845 
-1.12719 0.177198 -4.69944 
-0.536828 0.71722 -4.9853 
-1.29518 0.970869 -4.74145 
-1.76351 -0.559298 -4.39953 
1.9409 -0.55812 -5.72348 
1.08137 1.39762 -5.70364 
2.50912 0.377922 -6.02285 
0.663278 -0.749346 -4.71386 
-0.455577 -0.294072 -4.72558 
-1.32963 0.313624 -4.64969 
0.333466 -0.00633764 -4.93222 
-0.680957 0.421919 -4.88819 
-1.05021 -0.417466 -4.67184 
-1.07232 0.221717 -4.73304 
-1.11988 1.68327 -4.90558 
-0.17136 -0.158229 -4.82232 
-1.42699 -0.916535 -4.47942 
-1.44068 -0.200612 -4.54494 
-0.370471 -0.932928 -4.37294 
1.63813 0.00735391 -5.68818 
-1.13571 0.0349003 -4.69238 
-0.727925 1.29342 -4.99906 
1.83361 -0.762337 -5.67294 
-0.18793 1.54503 -5.23884 
-0.17212 0.365753 -4.89645 
-0.577371 1.27355 -5.04997 
0.790171 1.72522 -5.63766 
-1.15558 1.66191 -4.87817 
-1.07569 -0.253112 -4.68091 
1.40272 1.33511 -5.80892 
-1.38867 -0.362171 -4.53518 
2.19581 -0.649667 -5.80899 
-0.773153 1.11387 -4.95285 
1.66038 1.78226 -5.98552 
-1.18758 1.29097 -4.82267 
-1.12698 1.13268 -4.81895 
-0.267872 1.62353 -5.21323 
-1.39877 0.446136 -4.63588 
0.169373 0.13928 -4.88374 
-1.1829 -1.18984 -4.46319 
-0.993057 -1.19409 -4.53511 
-0.929394 -1.11788 -4.63336 
2.45255 -1.13275 -5.82475 
-1.31789 0.619691 -4.68443 
0.445015 -0.798055 -3.67951 
-1.32829 -0.102003 -4.59377 
-0.439702 1.29866 -5.10162 
2.26412 -0.236433 -5.88315 
-1.70748 -0.0761191 -4.46021 
-0.326368 1.62908 -5.18688 
-0.324929 -0.616264 -4.43738 
-0.571406 1.67502 -5.11121 
0.641624 0.773907 -5.07631 
2.07037 0.119095 -5.87357 
0.874971 0.0746572 -5.2487 
0.150009 -1.09942 -3.74279 
1.32131 -0.439217 -5.24214 
-0.568517 1.36108 -5.05479 
0.0223843 0.343951 -4.79472 
2.48127 -0.43321 -5.90161 
0.260271 -0.612471 -4.64406 
-1.31077 -0.873392 -4.52967 
-1.49935 -1.09389 -4.43545 
2.06853 0.888732 -5.98281 
-1.40945 1.64078 -4.78562 
-1.7189 1.42189 -4.64485 
1.15687 0.911143 -5.64832 
-1.10561 -1.08361 -4.58823 
0.550614 0.580748 -5.0727 
1.02746 1.66164 -5.72213 
-0.338053 1.25777 -5.13018 
1.5233 -0.361602 -5.61117 
-1.4531 -0.625089 -4.49586 
-1.41227 1.49723 -4.75523 
-1.81043 -0.205007 -4.40586 
1.1306 -0.651909 -4.96068 
-2.32764 -0.775887 -4.63913 
1.26442 -0.509909 -5.14992 
-0.673704 -0.394818 -4.4802 
-1.56395 -0.841662 -4.45158 
-1.34276 0.582592 -4.67063 
-1.52723 0.89354 -4.64519 
-1.12194 1.41397 -4.851 
-1.81341 0.248088 -4.45533 
-1.41766 -1.05036 -4.48281 
-1.47897 -0.478514 -4.50094 
0.23236 0.814747 -4.86305 
-0.635125 -0.0305535 -4.56765 
0.348598 0.571556 -5.00197 
-0.921385 1.06888 -4.88988 
-1.17543 -0.185759 -4.64299 
-1.69374 -0.985474 -4.38081 
-1.58754 1.51668 -4.69434 
-0.144339 0.103735 -4.87197 
-0.196147 -0.250947 -4.82274 
-1.18749 -0.954323 -4.56267 
-0.527837 0.53831 -4.97486 
1.31129 1.00337 -5.73757 
0.170627 -0.541606 -4.63664 
-1.32248 1.30774 -4.76608 
1.98907 1.08973 -5.99745 
2.20163 -0.881154 -5.78389 
-1.90218 0.198302 -4.41962 
0.886551 0.38348 -5.27462 
2.18244 -1.30824 -5.63472 
-1.26215 -0.869523 -4.55202 
1.51851 1.1627 -5.81841 
0.159679 -0.953442 -3.80062 
-1.83244 -0.883259 -4.34161 
-1.12527 -0.243957 -4.65498 
-1.79232 -1.28814 -4.23612 
-0.0689511 0.945879 -4.87383 
-1.47201 -0.268584 -4.52254 
-0.820122 0.709927 -4.88459 
2.56086 1.54336 -6.22467 
-1.27787 -0.116382 -4.62189 
0.463172 -0.157064 -4.7963 
-1.45993 -1.18999 -4.3633 
-0.680789 1.41781 -5.02421 
1.978 -0.755639 -5.70775 
0.0942861 0.181645 -4.85873 
-1.29092 1.06042 -4.74635 
-1.08778 1.32155 -4.85951 
-1.66449 1.06888 -4.60199 
-0.639646 1.07404 -4.9958 
-0.36647 -0.80963 -4.38122 
-1.37656 0.890804 -4.69139 
0.53781 0.0524903 -4.9913 
0.657484 1.72072 -5.59541 
-1.18631 0.0741546 -4.67173 
-1.15677 0.949295 -4.79673 
0.769347 -0.434979 -5.02806 
-1.80822 -1.04191 -4.34381 
-1.82593 1.23411 -4.57022 
1.36607 -0.775001 -4.96747 
1.48321 0.171886 -5.67933 
-0.508688 0.680094 -4.99628 
2.26031 1.4451 -6.2705 
-1.28304 -0.902051 -4.53095 
1.67381 1.13957 -5.87007 
0.557614 -0.589298 -4.76159 
0.404995 1.78119 -5.46799 
1.67661 0.432016 -5.77373 
1.62628 1.57514 -5.93268 
-1.25524 0.0532482 -4.65544 
-1.49204 -0.634165 -4.48009 
1.58488 -0.312102 -5.64413 
-0.336788 1.25535 -5.13278 
