ply
format ascii 1.0
comment VTK generated PLY File
obj_info vtkPolyData points and polygons: vtk4.0
element vertex 1713
property float x
property float y
property float z
element face 0
property list uchar int vertex_indices
end_header
-0.48079 1.00013 -4.61251 
0.91807 0.0184171 -4.85511 
2.45264 0.84708 -5.35391 
0.044793 -0.0899779 -4.56521 
-1.82753 0.682367 -4.555 
-0.743337 1.60765 -4.80778 
-1.23922 0.08263 -4.62597 
0.49221 0.550926 -4.6073 
-1.84798 0.692598 -4.54527 
0.194969 -0.710897 -3.411 
-1.54184 0.526127 -4.59943 
0.504675 1.10456 -4.59644 
-1.80362 0.200246 -4.52963 
-1.63335 0.15108 -4.55632 
-0.947511 0.853974 -4.72573 
2.40887 -0.717209 -5.25344 
-0.958557 -0.344869 -4.21063 
0.893663 -0.564851 -4.47158 
1.99011 0.840818 -5.25782 
-1.19752 0.863955 -4.68578 
-0.962308 -0.357445 -4.20773 
0.155587 -0.029587 -4.5288 
-1.72701 -0.567918 -4.4965 
-0.931509 0.828945 -4.72168 
0.849091 0.0312217 -4.84221 
2.25464 -0.271171 -5.25162 
1.4607 -0.38668 -4.66472 
2.29044 1.14974 -5.35149 
1.34485 -0.390837 -4.63706 
1.97372 -1.07401 -5.07398 
1.74456 0.497629 -5.20134 
-1.38724 -0.872634 -4.53363 
-1.52424 1.22116 -4.63309 
-1.31277 0.379174 -4.65586 
-0.253816 0.194001 -4.64681 
-1.38432 -0.597396 -4.55899 
-0.611533 1.42963 -4.81853 
-1.60001 -0.676526 -4.50935 
-0.92871 0.852587 -4.72941 
-1.70256 -0.559461 -4.50067 
1.28877 -0.956165 2.70797 
-1.45623 -0.555442 -4.54532 
2.07313 0.527218 -5.26244 
-1.96674 -1.08904 -4.32451 
-1.40732 1.3943 -4.67334 
-0.848428 1.42176 -4.78084 
2.45244 0.847586 -5.35352 
-1.75194 0.675971 -4.57591 
1.69605 1.14612 -5.22329 
0.00751562 1.03487 -4.51093 
-0.00702073 0.980789 -4.52472 
1.82676 1.26185 -5.25656 
-1.67994 1.03438 -4.613 
1.4047 -0.413668 -4.65069 
1.67163 0.706069 -5.20244 
-0.866375 -0.139711 -4.40999 
-1.84465 -0.0173565 -4.52634 
0.328447 -0.367273 -4.44721 
2.25425 -0.378548 -5.21446 
-1.0795 -0.00772407 -4.66324 
0.711478 0.549254 -4.64853 
0.968413 -0.373162 -4.57215 
-0.58507 1.32837 -4.81579 
0.44405 0.621639 -4.68484 
2.47999 0.842165 -5.36042 
-1.59672 -0.871448 -4.49945 
0.406099 0.350098 -4.66304 
2.17454 1.01495 -5.30035 
-0.254657 -0.102935 -4.62402 
-1.75874 -0.541326 -4.48569 
0.729491 -0.640777 -3.51532 
2.19061 -0.718796 -5.21456 
0.58901 -0.0382857 -4.67679 
1.27506 -0.50043 -3.90811 
-1.86921 1.05701 -4.5624 
2.30173 -0.737545 -5.23426 
-1.68443 -0.553045 -4.515 
-0.430884 0.0202444 -4.59123 
-0.00636414 -0.312371 -4.4617 
-1.19433 1.18177 -4.70311 
-1.78161 -0.874989 -4.46737 
1.19233 -0.371683 -4.60385 
-0.00216616 0.377349 -4.5884 
-1.32851 0.306771 -4.61843 
1.13137 -0.0731655 -4.89627 
1.88147 -0.563782 -5.17351 
-1.85573 -0.0042214 -4.51259 
0.328927 -0.364915 -4.44628 
-0.750242 1.05961 -4.76942 
-1.62244 0.156671 -4.55933 
-0.775828 -0.368912 -4.24022 
-1.36745 -0.911653 -4.53225 
0.554581 0.0731802 -4.68232 
0.0583976 0.759169 -4.61584 
2.26839 1.3211 -5.32869 
-0.915575 1.5984 -4.77902 
1.65325 1.13081 -5.2215 
-1.64725 1.04897 -4.60877 
1.22722 -0.914736 -3.91592 
1.34445 -0.165522 -4.82486 
-1.91382 -0.884192 -4.43783 
1.77999 0.841144 -5.2295 
-1.32919 -0.413834 -4.58763 
-1.24459 1.59538 -4.71783 
0.316532 0.547497 -4.65173 
-1.93599 1.61816 -4.5972 
-0.487147 0.115517 -4.59298 
-1.30159 1.3582 -4.69286 
0.354163 0.900718 -4.67814 
-0.724964 1.18475 -4.78396 
-0.718336 1.34325 -4.79477 
-0.0478375 0.415678 -4.56354 
2.09898 1.1631 -5.30206 
-0.117133 -0.926929 -3.329 
-0.23143 0.351238 -4.66085 
0.102334 2.4888 -13.1831 
2.23556 1.34564 -5.33015 
2.44104 0.507476 -5.32147 
1.44301 0.329143 -4.79092 
-1.82793 0.681621 -4.55638 
1.72469 0.398716 -5.20001 
-2.0812 0.439048 -4.49254 
-1.85279 1.42317 -4.60835 
0.900472 -0.751655 -3.53653 
2.30136 1.02571 -5.32967 
2.20785 1.32554 -5.31972 
-1.30057 0.549194 -4.65001 
0.196395 -0.44689 -4.42086 
0.281348 1.2468 -4.59745 
1.73006 0.399309 -5.20303 
2.4922 1.21288 -5.37903 
0.0279573 1.09886 -4.50526 
-1.63857 -0.873749 -4.49747 
-0.473245 0.602142 -4.58324 
-1.46535 -0.270379 -4.54471 
-0.398932 0.101029 -4.54084 
1.47895 -0.461391 -4.65744 
-0.689496 0.865245 -4.77879 
-1.63191 1.24364 -4.63508 
-0.749371 -0.25229 -4.37705 
-0.0834134 0.37003 -4.57249 
0.391724 1.49288 -4.59884 
0.912694 0.276985 -4.87334 
-0.831159 1.35606 -4.77601 
-0.0469578 1.08773 -4.48849 
-0.258834 -0.629585 -3.49951 
0.244591 0.438156 -4.64474 
-1.20519 -0.307358 -4.60612 
0.617719 1.08136 -4.6166 
-1.05724 1.65412 -4.75208 
-1.32373 -0.16829 -4.58778 
0.923718 0.0808011 -4.80654 
-1.50979 -0.880464 -4.50995 
1.85478 -0.726069 -5.16021 
-0.465541 0.125117 -4.57936 
0.984429 -0.387456 -4.57196 
-0.801571 0.90363 -4.75502 
1.21296 -0.336466 -4.60942 
1.14134 -0.418112 -4.59721 
-2.10677 1.70197 -5.48485 
-1.24548 -0.684525 -4.57767 
-1.03163 0.538882 -4.70136 
0.518129 -0.238071 -4.59893 
-1.47921 1.06417 -4.65227 
-1.41571 0.863044 -4.64327 
-1.5667 0.202921 -4.57825 
-0.325644 -0.443891 -4.32352 
0.40586 0.348695 -4.66571 
-0.106164 0.967826 -4.52613 
2.19858 0.33698 -5.28004 
-1.44927 1.51089 -4.6711 
2.02405 0.370312 -5.24577 
-1.71163 0.384852 -4.55798 
0.00979344 -0.71212 -3.37636 
-0.467236 0.03976 -4.58566 
0.367199 0.721352 -4.69715 
-0.465731 0.62917 -4.56818 
-1.01124 0.875441 -4.71532 
1.37181 -0.424065 -4.64851 
-0.38964 0.108607 -4.54311 
0.185686 0.0550596 -4.54061 
-1.10946 0.0140341 -4.64828 
0.69177 1.06497 -4.62077 
0.487368 1.09811 -4.60049 
-0.999754 1.18646 -4.73183 
-0.409965 0.0842569 -4.53961 
-0.0514393 0.324664 -4.57176 
-1.30383 -0.531265 -4.56782 
-1.60382 -0.0130245 -4.54628 
-1.62384 0.187797 -4.57253 
2.52508 -1.08105 -5.18269 
-0.473656 1.00523 -4.50032 
0.220046 0.354635 -4.66088 
2.21584 1.08641 -5.32683 
2.05477 0.384475 -5.25626 
0.248112 0.739138 -4.76103 
-1.03144 0.539172 -4.70195 
-0.146146 -0.686628 -3.42321 
0.0235162 1.09421 -4.50941 
0.640556 0.982311 -4.65259 
0.812756 1.05865 -4.76854 
2.13511 -0.27759 -5.22709 
-0.813189 -0.118448 -4.42177 
-1.88948 -0.539866 -4.45892 
0.69391 1.45209 -4.55966 
-0.0799348 0.0760735 -4.56705 
-1.84562 0.561381 -4.53764 
0.0223797 0.969949 -4.5383 
-1.73532 -0.873259 -4.47481 
0.067243 -0.747976 -3.38308 
-0.832465 0.193356 -4.40709 
0.097018 -0.0924762 -4.53178 
1.18762 -0.924213 -3.86333 
-1.35268 1.23967 -4.68143 
-1.89139 1.62165 -4.60562 
-0.405607 0.109354 -4.5397 
-1.32218 0.871572 -4.66511 
-1.54013 -0.706065 -4.51569 
1.79887 1.40835 -5.26784 
-1.26082 1.59797 -4.71655 
-0.0368531 -0.00190246 -4.56884 
-0.878911 1.1497 -4.75938 
1.91133 -0.569642 -5.17365 
0.180081 2.15209 -6.86773 
1.35367 0.821248 -5.14867 
-0.0673322 -0.364325 -4.37297 
-1.60031 -0.0854836 -4.54465 
-0.746916 1.53919 -4.79409 
1.81458 0.538057 -5.22447 
1.54352 -0.463115 -4.68445 
2.36873 1.59523 -5.36725 
-0.379896 0.101384 -4.54315 
0.0509896 -0.111412 -4.56851 
-1.52621 0.70222 -4.61425 
-1.4457 -0.571951 -4.54233 
-1.73812 1.04165 -4.5965 
0.291525 0.257218 -4.56744 
1.98146 -0.186774 -5.20145 
2.00884 -0.276882 -5.2246 
0.337894 1.49085 -4.58392 
-1.51501 0.874598 -4.62001 
0.383322 0.518919 -4.69834 
0.382333 0.51924 -4.69587 
-1.18896 -0.10426 -4.63032 
-1.72157 1.4307 -4.62176 
0.124434 -0.0465842 -4.51931 
-2.08413 0.0602643 -4.46294 
-1.513 0.716879 -4.61758 
1.18364 -0.359423 -4.60694 
0.366772 0.512809 -4.69681 
-0.342977 1.44876 -4.43399 
0.87404 0.741248 -4.86422 
1.10485 -0.445472 -4.5912 
-1.31725 0.317011 -4.62874 
0.74625 -0.44076 -4.52293 
2.18529 -0.605097 -5.2134 
-1.39734 0.867188 -4.64871 
-0.595713 -0.343097 -4.2745 
-0.20697 -0.408067 -4.34533 
0.603486 1.08941 -4.61621 
0.572996 1.01256 -4.63535 
1.58794 1.00075 -5.19904 
1.54905 -0.457113 -4.6731 
-1.84316 0.561126 -4.53925 
1.84483 0.829655 -5.24061 
-1.77593 0.379726 -4.5498 
0.21965 0.235799 -4.58296 
1.80244 0.710532 -5.24799 
-0.0846616 1.07566 -4.48418 
-0.398582 0.090647 -4.53942 
-0.101663 -0.866777 -3.31293 
-1.32911 -0.203446 -4.58352 
-0.219779 -0.436387 -4.34114 
-1.05681 1.65669 -4.75481 
2.00515 0.848463 -5.26965 
0.140692 1.49312 -4.54639 
-0.399294 0.104008 -4.54016 
-1.58993 -0.554375 -4.5275 
-0.00419799 1.49622 -4.49519 
-0.916398 1.16114 -4.74755 
2.54789 -0.472567 -5.29911 
2.39141 -0.715374 -5.25605 
-1.32086 1.24435 -4.68538 
-0.824213 -0.085761 -4.44198 
-1.8929 1.6225 -4.60855 
-0.93487 0.855232 -4.72332 
0.713679 -0.189242 -4.68763 
1.713 0.517437 -5.1839 
2.12957 0.7116 -5.28451 
2.54225 -0.258142 -5.31084 
0.581227 0.205109 -4.2866 
-1.30497 -0.08984 -4.59978 
0.90857 0.297324 -4.86893 
-1.70429 -0.315377 -4.51006 
-1.00492 1.33748 -4.74189 
1.92997 0.359697 -5.2331 
-0.460829 0.659773 -4.5691 
-0.633891 1.34958 -4.80716 
1.98579 -0.0388503 -5.23385 
-1.21272 0.751577 -4.6757 
1.79479 0.128871 -5.18757 
-1.6612 1.04071 -4.60279 
0.296235 0.275492 -4.56796 
-0.936003 -0.831023 -4.17116 
-1.32992 -0.205246 -4.58616 
-0.713059 1.51435 -4.79924 
-0.810616 1.23852 -4.77037 
-0.984745 1.64317 -4.76282 
1.56664 0.700464 -5.17954 
-0.553614 -0.402721 -4.283 
1.80678 0.294968 -5.21671 
-0.988319 0.843706 -4.71883 
1.44062 1.12298 -5.16852 
-1.2593 -0.469621 -4.58399 
0.376115 1.48298 -4.59429 
0.175298 0.963824 -6.37861 
-1.62285 -0.867459 -4.49805 
0.308407 1.497 -4.58039 
-1.96511 -1.09491 -4.32723 
-1.43651 1.47146 -4.67245 
-1.25399 0.173077 -4.62658 
-1.89281 1.23383 -4.5797 
0.237145 -0.542648 -4.35636 
2.17746 0.834595 -5.24401 
2.17809 0.162116 -5.27111 
2.28226 0.366761 -5.29201 
-1.84894 1.42078 -4.60832 
-1.72586 -0.881232 -4.53554 
1.25949 -0.421733 -4.61448 
-0.133162 0.222461 -4.55938 
1.482 -0.423614 -4.66012 
-0.722349 0.976282 -4.76662 
-0.684205 -0.410177 -4.26084 
1.98391 0.683213 -5.25468 
1.62338 -0.00961719 -5.13368 
1.33976 -0.182394 -4.81368 
-0.812997 -0.118347 -4.42226 
-1.6953 -0.256202 -4.52644 
-1.23866 -0.698793 -4.58005 
-1.71697 -0.873966 -4.49665 
-1.29426 1.43422 -4.69729 
-1.42001 0.198588 -4.60771 
1.4392 1.21793 -5.18599 
0.413859 1.50603 -4.60312 
-1.25844 -0.256688 -4.59471 
-1.55459 0.00427372 -4.55969 
-1.78311 0.00599131 -4.51296 
-1.29711 0.444463 -4.63534 
-0.326821 0.250757 -4.63769 
-1.36865 -0.833021 -4.54333 
1.34279 -0.378745 -4.63584 
-0.910624 -0.401969 -4.22274 
-1.81885 -0.896184 -4.48225 
1.42268 0.701985 -5.15191 
-1.21798 -0.717052 -4.58598 
1.97041 0.376286 -5.23097 
-0.772509 1.60082 -4.79376 
2.02443 1.43013 -5.30032 
-1.35204 1.23967 -4.67896 
0.813504 1.08063 -4.78059 
-1.61075 -0.404385 -4.5272 
-1.46723 -0.167137 -4.56459 
-1.14418 1.43103 -4.7275 
1.87105 -0.0405586 -5.20854 
0.114221 1.48781 -4.55422 
-1.5438 1.07301 -4.62452 
-1.64645 1.40378 -4.62682 
0.235124 -0.557516 -4.35468 
-1.49506 -0.23583 -4.54772 
-1.32929 1.22973 -4.68094 
-1.08333 -0.107463 -4.64769 
0.617365 -0.643769 -3.49296 
1.36083 1.1855 -5.16925 
-0.461053 0.658499 -4.56558 
-0.857111 1.04444 -4.75303 
-1.52214 -0.305932 -4.52642 
0.0737441 0.647288 -4.61074 
-0.727488 0.853718 -4.76682 
-0.523992 -0.37215 -4.29185 
-1.30022 -0.334091 -4.59451 
0.812132 1.07217 -4.78699 
-1.3865 -0.0645435 -4.58592 
-0.167353 -0.714781 -3.43712 
0.00437526 0.421536 -4.57379 
-2.00116 -0.846634 -4.4194 
-2.09876 -0.543453 -4.42856 
-2.05982 0.0527819 -4.46672 
-1.56551 -0.857692 -4.50333 
-1.48264 1.16314 -4.64426 
-1.71956 -0.549645 -4.49714 
0.116482 -0.121395 -4.52626 
-0.934962 -0.625006 -4.18677 
-1.75923 0.1964 -4.53161 
2.03179 0.5328 -5.24619 
-1.16851 0.204491 -4.64018 
-0.508771 1.30646 -4.82647 
0.889164 0.166493 -4.84939 
-1.21775 -0.425494 -4.60722 
-1.38856 1.49553 -4.67333 
-1.37278 -0.866634 -4.54015 
-1.3785 -0.00506655 -4.60004 
-1.30359 -0.585545 -4.56521 
2.18343 -0.723057 -5.21568 
2.14131 0.826283 -5.29192 
-0.0251206 -0.742913 -3.36581 
-1.48692 1.16653 -4.65541 
1.51556 -0.464134 -4.65856 
-0.227678 -0.820133 -3.46859 
-0.0274236 0.0199006 -4.56872 
-2.08506 -0.859421 -4.40368 
1.50893 1.40071 -5.20335 
-1.62573 0.554996 -4.59043 
-0.0793459 0.0203623 -4.56278 
-1.03792 0.856298 -4.71658 
-1.37561 -0.871803 -4.53673 
2.00891 -0.458489 -5.19929 
-1.41982 -0.102668 -4.5833 
-1.52515 1.0763 -4.63521 
-1.21299 -0.237322 -4.61368 
-1.59812 0.227649 -4.57119 
-0.626871 -0.0164764 -4.53122 
-1.83554 0.340126 -4.53987 
1.78578 1.17007 -5.23919 
-0.776081 -0.359362 -4.24034 
-0.0904868 -0.367 -4.3718 
1.31694 0.0708515 -4.89277 
-1.84679 -0.676165 -4.47233 
-1.33923 -0.908897 -4.53977 
-0.630378 1.42698 -4.81871 
2.4979 -0.682989 -5.28071 
-1.07785 1.34671 -4.72807 
0.774932 0.0314087 -4.8319 
1.50879 -0.232154 -4.80403 
-1.82662 0.341245 -4.53917 
-1.40436 -0.847986 -4.53774 
0.341486 -0.0842928 -4.54872 
-1.36664 -0.21869 -4.57588 
-0.515713 -0.431968 -4.28861 
-1.312 0.893433 -4.66829 
2.32875 1.1245 -5.34271 
2.20351 1.28698 -5.32698 
-1.60714 1.33353 -4.6453 
-1.74075 -0.454059 -4.49741 
0.117157 -0.0644008 -4.50259 
0.0392581 1.03107 -4.51006 
-1.79476 -0.226597 -4.49299 
0.990236 0.640807 -4.81404 
2.20796 1.292 -5.32685 
0.859988 -0.765461 -3.53186 
-1.35989 -0.896962 -4.53918 
-1.49142 0.883565 -4.63651 
-1.83271 -0.294002 -4.4869 
-0.47242 1.30047 -4.83444 
0.81331 1.05306 -4.76022 
-0.0980711 0.414656 -4.5577 
0.189491 -0.0572634 -4.48306 
1.40795 -0.156278 -4.82975 
1.78933 -0.455237 -5.15459 
-1.35887 -0.103931 -4.59355 
-1.77265 0.916773 -4.57063 
-1.46451 -0.386582 -4.54492 
1.96507 0.69699 -5.2441 
2.16931 0.710626 -5.27537 
-1.68883 0.179547 -4.55178 
-0.926307 1.56597 -4.76934 
-1.8706 -0.898632 -4.45177 
-1.5308 -0.0195421 -4.54763 
-1.23692 0.751044 -4.66826 
-0.952253 1.2948 -4.7508 
1.96044 0.825888 -5.25443 
1.14177 -0.361733 -4.60263 
-2.05013 -0.929478 -4.38148 
1.36782 1.13961 -5.16152 
0.0735581 -0.352641 -4.40074 
-1.74713 -0.661504 -4.48806 
0.140433 -0.0335455 -4.52357 
0.116579 -0.510649 -4.39874 
-1.52189 1.20279 -4.63236 
0.60108 -0.628708 -3.49265 
0.897532 -0.459164 -4.55074 
-0.270635 0.0552151 -4.63797 
0.473025 0.768408 -4.70051 
1.81407 1.38041 -5.26163 
1.02739 0.541875 -4.88028 
-0.644573 0.181226 -4.55373 
-1.65047 0.0311951 -4.55604 
-1.71547 -0.224186 -4.52035 
-0.290962 -0.40818 -4.33613 
0.379515 -0.761615 -3.43847 
1.26762 -0.44675 -4.61346 
1.85458 1.60852 -5.27803 
0.0405173 -0.389822 -4.39379 
-0.61215 1.40969 -4.81502 
1.8304 0.0371687 -5.17966 
-1.29783 1.19302 -4.68427 
2.28127 -0.473032 -5.24899 
-1.55568 -0.416766 -4.54029 
-1.41846 1.22834 -4.66301 
1.60692 -0.0239376 -5.14356 
-1.90412 1.23401 -4.57824 
-0.377689 0.69381 -4.62773 
1.77989 0.183182 -5.17376 
-0.41964 -0.402295 -4.31099 
-0.878033 -0.935743 -4.15757 
-0.636153 1.59743 -4.82502 
-0.871102 1.59491 -4.77443 
0.0409281 1.06683 -4.49959 
-1.36602 -0.0887445 -4.59947 
1.78215 0.513674 -5.22419 
0.566976 -0.52841 -4.42065 
1.08322 0.470926 -4.89272 
-1.27436 -0.707947 -4.56825 
-1.72543 0.992786 -4.59367 
-0.763196 1.48607 -4.7891 
-1.28756 -0.316371 -4.58349 
-1.96311 -0.852351 -4.4283 
-0.0539528 -0.109277 -4.56194 
-1.65127 -0.0975688 -4.5319 
1.34869 -0.103444 -4.84255 
-1.38009 -0.584745 -4.55705 
2.33248 1.05738 -5.33387 
-0.620648 1.6169 -4.82908 
1.36222 -0.525537 -4.62356 
2.10786 -0.715733 -5.19256 
-1.30688 1.04706 -4.6726 
1.67673 -0.227425 -5.14545 
-1.46246 -0.12084 -4.56558 
1.26457 1.37045 -5.15977 
-1.45162 1.42939 -4.66943 
-1.60729 1.33371 -4.6435 
-1.18982 1.44542 -4.72411 
0.116942 -0.5101 -4.39737 
-1.45838 -0.238948 -4.58541 
2.53084 -0.739573 -5.28177 
-0.26417 -0.436883 -4.33206 
-1.25786 -0.115839 -4.6142 
0.0110063 -0.748227 -3.37374 
-1.84216 1.43875 -4.60214 
2.53558 1.21061 -5.37914 
-1.71717 -0.251697 -4.5277 
-1.60189 1.2853 -4.6338 
0.900207 0.584369 -4.85963 
-1.91227 1.42892 -4.58167 
1.71465 -0.228895 -5.15396 
-1.30072 0.190051 -4.6213 
-1.38103 -0.679604 -4.55988 
2.43642 -1.0052 -5.23459 
-1.38461 0.589946 -4.63214 
1.91307 -0.167102 -5.20295 
0.795478 -0.457596 -4.52686 
-1.49329 1.05774 -4.64154 
0.595009 1.08059 -4.61292 
1.5663 0.700564 -5.17932 
-1.25423 0.168355 -4.62239 
1.84209 1.3917 -5.26946 
-1.8452 0.370481 -4.54398 
-1.22344 1.3362 -4.70191 
-0.940203 0.53699 -4.7058 
-1.77661 0.551049 -4.55665 
-0.924417 -0.742935 -4.16108 
-1.72903 0.694329 -4.57441 
-0.353052 0.118011 -4.57785 
-1.34425 0.881324 -4.6564 
0.355365 -0.0204747 -4.50604 
2.48368 0.42455 -5.34192 
1.49675 0.930828 -5.17831 
-0.829489 1.48174 -4.77721 
-1.27498 1.32324 -4.70153 
0.735646 -0.38103 -4.52561 
1.28055 0.847166 -5.12986 
-1.39942 0.608561 -4.62603 
-1.76274 -0.248229 -4.51486 
2.3205 1.0729 -5.33424 
-1.58447 0.0160561 -4.55035 
-0.717894 1.54057 -4.80022 
1.38346 0.800946 -5.15231 
2.25606 -0.307997 -5.24227 
-1.26758 -0.685633 -4.591 
-1.03186 0.882633 -4.71406 
2.20975 -0.986883 -5.20259 
-1.27399 -0.833276 -4.55251 
1.14934 1.42599 -5.14 
-1.6278 1.63482 -4.65011 
0.875218 0.607187 -4.85629 
-1.50457 1.08123 -4.64596 
1.69013 0.696453 -5.20257 
-1.42642 -0.853692 -4.53792 
2.06571 -0.895943 -5.18879 
-0.966341 0.544382 -4.70349 
-1.59531 0.520687 -4.58618 
-0.922938 0.545838 -4.71198 
1.1815 1.21647 -5.12832 
-1.44915 -0.845928 -4.5274 
-1.67567 0.00907351 -4.54032 
1.18938 -0.449917 -4.60395 
-1.61377 1.56385 -4.6427 
-1.8696 -0.668965 -4.45641 
-1.63991 -1.00357 -4.39935 
1.26736 1.39615 -5.17513 
-1.74044 0.0174265 -4.52481 
1.12795 0.810866 -5.1028 
-0.332576 1.74234 -4.89197 
-0.87243 -1.06673 -4.12304 
-0.389601 0.0811441 -4.54247 
-0.915637 -0.820007 -4.1789 
-1.78272 0.680781 -4.55449 
2.27772 1.5591 -5.35428 
-0.606943 -0.314839 -4.27855 
2.17179 1.24496 -5.32697 
-1.82766 0.259246 -4.52084 
1.94544 -0.272944 -5.20231 
0.526781 0.979311 -4.64734 
-0.766111 1.07746 -4.76359 
2.16454 -0.711532 -5.20971 
-1.50548 1.08117 -4.64835 
2.02313 -0.0187768 -5.22658 
-1.7016 -0.632784 -4.49457 
-1.60116 1.04125 -4.625 
1.98262 -0.465758 -5.20047 
0.120148 -0.0435705 -4.51998 
-0.0595937 -0.155618 -4.55815 
-1.40864 -0.609097 -4.54639 
1.48312 0.543455 -5.15159 
-0.984059 0.861386 -4.72135 
0.0730972 0.65616 -4.61431 
-0.340206 -0.624079 -3.57401 
-0.855352 0.691461 -4.7321 
2.18663 0.539165 -5.28634 
-0.90218 0.133852 -4.4203 
0.0744108 1.09667 -4.51793 
-1.28051 -0.266554 -4.59322 
-1.57978 0.477405 -4.58895 
-1.32141 1.46934 -4.6864 
-0.928157 -0.575801 -4.15318 
1.02461 0.25511 -4.88694 
2.31733 1.0803 -5.33691 
-0.959255 1.25132 -4.74858 
0.0544185 1.06928 -4.51805 
0.829798 0.0679425 -4.8348 
-1.2609 -0.115029 -4.61675 
1.41421 0.515992 -5.14094 
2.27081 1.36154 -5.3466 
0.110914 -0.437695 -4.40152 
-2.12632 -0.971764 -4.31294 
-1.99834 0.577889 -4.51112 
1.67861 -0.00345534 -5.17213 
0.177605 1.49301 -4.54982 
-1.49933 -0.688702 -4.53583 
-0.284764 0.902928 -4.65324 
2.47659 -0.740679 -5.2612 
1.99929 -0.274217 -5.18769 
-1.38381 0.192731 -4.60457 
-1.90949 -0.0581866 -4.4859 
1.83426 1.63032 -5.28161 
1.77172 0.374948 -5.22174 
-0.868126 -0.838388 -4.18594 
-1.31779 1.19734 -4.67943 
-0.934342 -0.624661 -4.18498 
-0.0756068 0.868054 -13.1838 
-0.801988 0.99652 -4.76704 
-1.09191 1.4156 -4.73256 
-1.848 0.325508 -4.52822 
-1.75671 0.919907 -4.57745 
-0.826888 1.20156 -4.75115 
-1.53199 -0.320041 -4.51929 
-1.15343 1.06277 -4.70215 
-0.379741 0.598285 -4.62556 
1.24624 -0.536216 -4.18975 
-1.02628 0.67626 -4.6987 
-0.168421 -0.753421 -3.4332 
-1.72332 0.88936 -4.60079 
-1.5385 -0.819359 -4.49708 
-0.786563 -0.668405 -4.21198 
1.85743 -0.457503 -5.17196 
-1.872 1.12655 -4.56639 
1.47958 -0.31363 -4.7556 
-1.03313 1.34404 -4.73873 
-0.867859 0.675485 -4.72479 
1.35672 0.845244 -5.1565 
0.967213 0.893316 -4.80169 
2.19379 1.02578 -5.30697 
1.27351 -0.455608 -4.61314 
-0.745983 1.17749 -4.7792 
-1.23585 -0.227032 -4.60759 
-0.89348 -0.112856 -4.4117 
-1.5311 -0.829834 -4.49927 
1.35414 -0.117534 -4.82346 
-0.872083 0.325127 -4.32132 
-1.43449 1.54236 -4.68127 
-0.885917 1.53932 -4.77547 
-1.62495 0.00351868 -4.56524 
-0.634611 0.197687 -4.55619 
-0.65175 -0.430959 -4.26245 
-1.87638 0.192246 -4.52554 
-1.56145 -0.0404152 -4.57243 
1.89845 0.340914 -5.22408 
-0.326717 -0.412865 -4.32578 
-0.0309617 0.986769 -4.51237 
-1.05693 0.681715 -4.69672 
1.57125 -1.05507 -4.57787 
-1.03762 0.635728 -4.69173 
0.29126 -0.383734 -4.43991 
-0.644854 -0.403894 -4.26681 
0.230383 -0.654222 -3.41964 
1.48355 0.543296 -5.15228 
-0.357365 0.0417364 -4.60904 
-1.23403 -0.306261 -4.60291 
-0.621441 -0.435184 -4.26622 
-1.53105 0.3896 -4.58798 
-1.96902 -0.880328 -4.42982 
-0.773454 -0.259127 -4.3506 
0.223693 0.974609 -3.64509 
1.29135 -0.288963 -4.72953 
0.110602 -0.439592 -4.40454 
-0.354883 0.144979 -4.3138 
2.15096 0.695995 -5.28222 
-1.44067 -0.861099 -4.52815 
0.191402 -0.437779 -4.41684 
-1.17154 1.5146 -4.73132 
-1.8237 -0.87078 -4.46401 
0.64565 0.41666 -4.70004 
-1.66644 -0.778983 -4.48829 
2.15795 -0.872521 -5.21379 
-0.350421 -0.31114 -4.51521 
1.8457 0.54065 -5.2298 
1.95973 -0.195014 -5.20104 
-1.34989 -0.08197 -4.59781 
2.32697 -0.730917 -5.23919 
-1.59859 1.03709 -4.6153 
0.172165 1.49128 -4.55456 
-1.08167 1.6483 -4.75423 
0.378185 0.29496 -4.64937 
2.32652 -0.730352 -5.23799 
-0.842518 0.647941 -4.7288 
-0.52395 0.264897 -4.6034 
-1.34458 0.273163 -4.61465 
-1.85428 -0.812735 -4.45192 
1.80093 1.25082 -5.25829 
-1.72453 0.992145 -4.59097 
2.00475 1.03234 -5.26957 
-0.860676 0.267343 -4.33109 
-0.871788 1.62077 -4.78529 
2.39628 0.360073 -5.32487 
-1.58363 0.157388 -4.5687 
0.436765 -0.454104 -4.4588 
-1.51889 0.813008 -4.61587 
1.92812 -0.71005 -5.17144 
0.523138 1.05829 -4.60089 
-1.0045 0.987735 -4.71994 
-1.3222 1.03321 -4.66454 
-1.48608 0.858289 -4.63922 
-2.35284 0.243188 -4.73532 
-0.044142 -0.368569 -4.37972 
1.77294 1.40044 -5.25843 
-1.63914 -0.210972 -4.52528 
0.87527 0.716157 -4.86076 
0.219821 0.336307 -4.65789 
-0.155623 -0.616551 -3.43026 
-1.09798 1.60342 -4.74833 
0.0340255 1.39193 -4.46281 
-0.919909 1.32131 -4.7559 
-1.28255 0.82322 -4.66223 
1.8019 0.177792 -5.17469 
1.27883 -0.345454 -4.6294 
0.0251677 -0.413769 -4.39068 
-0.660305 1.38394 -4.8062 
1.11361 -0.386195 -4.59956 
-1.26976 1.08085 -4.67757 
1.74161 0.262421 -5.17745 
-1.3712 1.48089 -4.67144 
0.188667 -0.377099 -4.41404 
-0.57017 -0.622374 -6.7773 
-0.765111 1.07958 -4.76598 
0.589563 0.140489 -4.69128 
1.48276 0.8655 -5.17488 
2.16053 -0.706148 -5.19553 
-1.62635 1.63491 -4.65145 
-1.29633 -0.399948 -4.58505 
1.22198 1.40447 -5.15374 
0.584364 1.03925 -4.62416 
-0.611473 0.251288 -4.56401 
2.18742 1.6173 -5.36426 
-1.73341 -0.550267 -4.49004 
-1.42915 -0.854454 -4.54786 
-1.96208 -1.03553 -4.329 
-1.34227 -0.828995 -4.54309 
-0.0683374 1.03418 -4.49861 
-1.69195 -0.422777 -4.51797 
-0.985737 -0.619139 -4.17427 
1.91332 -0.715383 -5.17531 
0.282407 0.0181951 -4.43746 
1.18732 0.842017 -5.11945 
-1.74504 -0.552415 -4.49018 
-1.87735 1.33204 -4.58504 
-1.3421 1.07237 -4.66484 
1.36514 -0.459484 -4.63752 
2.38314 0.816136 -5.32505 
-0.864363 1.43692 -4.77552 
-1.84676 0.181291 -4.52645 
-1.58033 -0.86995 -4.50695 
-0.694738 1.4184 -4.81201 
-1.10439 0.870413 -4.7049 
0.358135 0.524742 -4.69464 
-1.26816 -0.514185 -4.5698 
1.92562 -0.283738 -5.20053 
-0.141979 -0.80451 -3.41258 
0.589487 0.324451 -4.69184 
-1.35228 -0.557239 -4.56845 
2.06414 0.42263 -5.25185 
-1.62435 -0.421174 -4.53344 
0.854053 -0.361729 -4.55283 
-1.61557 -0.259417 -4.53439 
1.53526 -0.448924 -4.66351 
-1.73976 -0.0552209 -4.5209 
0.137976 1.5048 -4.54505 
1.8499 1.63574 -5.2769 
-1.38882 1.61399 -4.69486 
-1.66033 1.43867 -4.61947 
-0.823583 1.62257 -4.79095 
-1.82027 0.233785 -4.52933 
0.648128 1.23398 -4.67358 
2.1898 1.07257 -5.30891 
-0.0229212 1.03447 -4.50371 
-1.25166 1.56964 -4.70866 
-1.50264 -0.830814 -4.50418 
1.96001 -0.291125 -5.19991 
-1.37398 -0.257794 -4.5921 
-1.63995 -1.0033 -4.39843 
-1.2683 0.188197 -4.63852 
0.262647 0.568175 -4.63109 
1.91147 -0.167014 -5.19962 
-1.02229 0.675349 -4.70313 
-0.399056 0.594809 -4.61656 
1.94493 -0.154691 -5.2059 
2.49035 -0.286827 -5.29613 
0.882401 0.726151 -4.85848 
-1.76196 0.886439 -4.58536 
1.6577 1.15037 -5.2209 
-0.866389 -0.370547 -4.22791 
-0.351858 2.48545 -13.211 
-1.90815 0.703588 -4.5364 
-1.69612 0.990119 -4.60276 
-1.42774 1.25114 -4.66202 
-1.73237 1.02684 -4.5855 
-0.246552 -0.458204 -4.32775 
-1.62775 -0.897148 -4.48708 
-1.37947 -0.682979 -4.56069 
1.82405 -0.725729 -5.15529 
1.86641 -0.502524 -5.16516 
-1.77635 0.901551 -4.58014 
-1.22061 0.0226008 -4.62985 
-1.5879 -0.0165545 -4.55829 
0.985204 0.688689 -4.78908 
0.62762 -0.383455 -4.5047 
-1.53165 1.27554 -4.6424 
-1.05234 1.20163 -4.71938 
0.239265 0.347074 -4.66217 
-0.850644 0.393021 -4.38783 
0.867957 0.727002 -4.86642 
2.20907 1.36531 -5.3166 
1.52384 1.14792 -5.20651 
-1.14953 0.884285 -4.70091 
-1.33753 1.21277 -4.68122 
2.16111 0.828593 -5.27706 
-1.96386 -0.802817 -4.43371 
-1.52162 -0.77101 -4.51984 
-2.18923 -1.11036 -4.29089 
-1.45534 1.43911 -4.65355 
0.0151306 1.06618 -4.51133 
2.5374 -0.705507 -5.27521 
0.157795 1.24969 -4.57575 
-0.0264761 -0.514283 -3.65316 
1.98445 1.43395 -5.29974 
0.148069 1.391 -4.4823 
1.35731 -0.456057 -4.63086 
-0.751671 1.3204 -4.78665 
-2.00192 1.08098 -4.54484 
-1.59998 0.174269 -4.56745 
0.539651 0.37364 -4.68754 
-1.89321 0.275551 -4.51353 
0.647868 -0.384681 -4.50483 
1.79754 -0.281973 -5.17986 
-1.3143 -0.888022 -4.55353 
-0.890147 -0.0635647 -4.4308 
0.965297 1.71259 -5.1175 
1.83834 1.66639 -5.283 
1.24677 1.51733 -5.16729 
-0.882972 1.59581 -4.77632 
2.15592 0.350547 -5.26996 
0.345707 0.54618 -4.66456 
-0.379757 -0.458272 -4.31115 
-0.0677701 -0.359327 -4.37207 
1.98405 -0.281164 -5.21755 
-1.27774 -0.817725 -4.56475 
-1.27179 -0.517873 -4.57678 
-1.37988 -0.0307948 -4.59769 
1.51714 -0.860411 -4.60427 
-0.309033 -0.436204 -4.3269 
-0.597324 -0.322699 -4.27807 
-0.821571 1.54786 -4.7845 
1.48705 -0.359842 -4.66164 
2.51215 1.37139 -5.38491 
-1.80261 1.03608 -4.56332 
-2.08602 1.47044 -4.54747 
-1.68014 -0.85854 -4.48438 
-1.62766 -0.897062 -4.48735 
1.38478 1.21545 -5.17787 
2.00116 -0.46117 -5.20471 
-1.01505 0.668737 -4.70294 
-1.55664 0.560034 -4.599 
0.907502 0.108259 -4.82329 
-0.896999 1.3497 -4.75858 
-1.45603 -0.257714 -4.57266 
-1.30011 0.476771 -4.63744 
0.524814 1.49455 -4.60502 
-0.641781 1.6254 -4.82131 
2.28729 1.19252 -5.35029 
-0.219875 -0.658372 -3.47867 
-1.76326 -0.882454 -4.45919 
2.26025 0.684074 -5.30032 
2.06175 0.795626 -5.28436 
2.1976 -0.206313 -5.24547 
-1.32186 1.47462 -4.68824 
-0.27165 1.4091 -4.47369 
-1.1417 0.161991 -4.65011 
0.435007 -0.810482 -3.45094 
-0.915749 0.531106 -4.71036 
-1.65689 -0.847307 -4.48506 
-1.50854 1.42489 -4.64984 
-1.25442 1.56824 -4.71432 
0.744039 -0.416703 -4.52284 
1.2445 0.843218 -5.1369 
-1.19901 -0.229378 -4.61491 
-0.694945 0.69647 -4.75654 
-1.12333 1.34819 -4.7271 
-1.2245 -0.844919 -4.57295 
-0.844413 0.247803 -4.37029 
2.46239 1.31431 -5.37818 
-1.37432 -0.25767 -4.5911 
0.495678 -0.752878 -3.46437 
-1.09782 -0.10698 -4.64187 
0.0266828 0.269813 -4.59258 
-1.72591 -0.831076 -4.47005 
-0.420759 -0.440249 -4.31154 
-1.35441 -0.186264 -4.58054 
2.27649 1.18109 -5.34087 
0.127343 1.38583 -4.47896 
-0.802538 1.34546 -4.78452 
-1.29229 0.71123 -4.65901 
-0.742639 -0.460374 -4.24451 
2.50423 -0.728561 -5.28133 
1.82171 1.19336 -5.2447 
0.29073 0.619434 -4.74411 
-1.94702 0.0198903 -4.49276 
-1.47701 1.05084 -4.65386 
-1.91226 -0.243649 -4.48072 
-1.84848 0.871027 -4.56582 
-1.43655 0.188419 -4.60686 
-1.32296 1.03255 -4.66338 
-0.110255 1.22839 -4.54201 
-1.70467 -0.0487693 -4.5258 
0.115956 1.23016 -4.56812 
-0.868276 0.543187 -4.72392 
-1.48847 -0.872206 -4.53353 
0.425117 0.883677 -4.65205 
0.270176 0.164995 -4.64012 
-0.841777 -0.23986 -4.38168 
1.96081 1.4493 -5.30026 
-1.67516 0.697239 -4.57856 
-0.231609 -0.844349 -3.47672 
-0.86608 -0.7293 -4.19406 
1.39408 1.12042 -5.16123 
-2.02685 0.0533541 -4.47113 
-1.62224 0.170317 -4.55668 
-0.641891 1.62484 -4.82015 
-0.0169073 0.362312 -4.59122 
-1.80665 0.718999 -4.55855 
0.133849 -0.595533 -4.33801 
-0.410628 0.0707402 -4.54844 
2.49624 -0.188752 -5.30899 
-0.867959 -0.841891 -4.18355 
0.177832 0.305504 -4.64044 
-0.762359 0.857235 -4.75884 
-2.11114 -0.978718 -4.31565 
2.02339 -0.0181938 -5.22725 
-1.88816 0.182451 -4.52334 
2.10488 -0.990039 -5.18126 
-1.53942 0.685116 -4.60762 
-0.826449 1.43166 -4.77602 
0.418637 1.3809 -4.54427 
1.70996 0.630763 -5.20104 
-1.4439 1.58795 -4.67767 
1.8444 -0.147354 -5.19372 
1.40059 -0.142334 -4.81529 
2.06304 0.535 -5.26229 
1.8754 1.59503 -5.28642 
-1.79688 0.70351 -4.56237 
-1.20308 1.59128 -4.71802 
1.24973 1.60324 -5.16816 
1.80644 -0.898083 -5.13845 
-1.09295 1.43644 -4.7427 
2.32255 0.523555 -5.31665 
0.868396 0.705955 -4.86619 
1.25443 1.29199 -5.15798 
-1.81558 1.53503 -4.60422 
1.96897 -0.317039 -5.19289 
0.0822975 1.49215 -4.53605 
1.09904 -0.453808 -4.59362 
-1.47644 0.0305923 -4.57741 
-0.0152031 1.07705 -4.50285 
1.27867 1.29582 -5.15994 
-0.572204 1.33619 -4.81516 
-1.67266 -0.2449 -4.53728 
-0.0978487 1.00797 -4.82966 
-1.9035 1.63368 -4.59966 
-1.39855 -0.880711 -4.53833 
-0.07591 -0.879144 -3.34657 
-1.74548 -0.577715 -4.49066 
-1.95175 -0.870846 -4.43024 
1.18401 1.6159 -5.15576 
-1.97684 -0.822823 -4.42989 
1.40266 0.524275 -5.1373 
-0.922556 -0.810141 -4.17726 
-1.66693 0.032254 -4.5363 
-1.59187 0.551629 -4.59092 
-0.101183 0.419082 -4.56178 
0.132902 -0.64272 -3.40208 
0.00484029 1.40092 -4.44492 
-1.28617 -0.534128 -4.56876 
1.78533 1.32555 -5.25247 
-1.35981 -0.18076 -4.57832 
1.85912 1.20237 -5.26209 
-1.34233 -0.37072 -4.57891 
-0.887954 0.404497 -4.40261 
-1.9136 1.27885 -4.56365 
0.542468 0.416748 -4.6802 
-1.21928 -0.535963 -4.59153 
-0.777779 0.997068 -4.76241 
-1.40226 0.0260579 -4.5965 
0.411124 0.30148 -4.65756 
2.22014 1.31249 -5.32843 
1.33939 0.00953055 -4.91154 
-0.243251 -0.728458 -3.49103 
1.18246 1.45346 -5.14241 
-0.866253 0.548178 -4.72077 
2.22207 -0.508348 -5.25178 
-1.821 0.910533 -4.57126 
-0.0964134 1.03497 -4.49797 
-1.28615 1.06045 -4.67153 
-0.200847 -0.321916 -4.43554 
-0.288912 1.09165 -4.57104 
-2.00898 -0.993051 -4.32594 
-1.86415 0.213669 -4.5201 
-0.308155 0.790828 -4.66436 
1.62516 1.18903 -5.2268 
-1.53961 -0.247222 -4.54596 
1.73707 -0.265982 -5.15533 
0.44064 -0.765361 -3.4504 
-1.31644 0.178919 -4.61971 
1.65005 1.21602 -5.22121 
-0.386825 0.014507 -4.60482 
-0.776372 1.332 -4.78138 
-1.23778 -0.407434 -4.59497 
0.226427 -0.050652 -4.49172 
2.197 -0.995809 -5.19958 
-1.29894 -0.244338 -4.59716 
-1.34662 -0.35709 -4.57673 
-1.451 -0.242796 -4.57763 
2.46299 -0.190371 -5.29966 
1.90072 -0.828368 -5.15819 
-1.37198 -0.616577 -4.56005 
2.16196 0.526114 -5.29705 
-1.71857 -0.627965 -4.49834 
-0.019601 0.894275 -4.29431 
0.0680937 -0.406725 -4.39805 
-2.04061 1.25764 -4.54779 
0.875361 0.694144 -4.8589 
-1.43238 -0.520498 -4.54904 
-0.0694388 0.367972 -4.56173 
1.21197 1.58695 -5.15379 
-1.75635 -0.262721 -4.51664 
-1.28268 0.822753 -4.66197 
0.915941 0.138988 -4.8432 
1.35 0.844459 -5.15292 
-0.208216 -0.350696 -4.35526 
1.92157 1.58925 -5.28715 
-1.20421 0.190493 -4.63476 
-1.5308 -0.75884 -4.50854 
-1.49257 -0.675737 -4.52057 
1.43266 -0.162823 -4.84433 
0.618726 1.47398 -4.61509 
0.313408 -0.370957 -4.44411 
-1.49592 1.19456 -4.64813 
0.261632 1.49293 -4.57228 
2.02827 -0.155204 -5.22686 
1.75554 0.405048 -5.19391 
0.176389 -0.637906 -3.412 
-0.806178 1.59703 -4.79986 
-1.84709 0.357302 -4.541 
1.21577 1.6689 -5.16519 
-1.39498 -0.86268 -4.53892 
-0.832887 1.20475 -4.75619 
-1.28138 1.29327 -4.6935 
1.46587 1.1281 -5.21484 
2.54063 -0.706444 -5.26068 
2.29349 -0.196653 -5.24534 
-1.28237 0.700431 -4.66005 
2.19671 1.05582 -5.3033 
-1.63759 -0.433077 -4.5156 
-1.62819 -0.468857 -4.51212 
1.71688 1.59242 -5.24886 
2.3258 -0.0479394 -5.29103 
-1.56539 -0.0720319 -4.55351 
-2.07362 1.26112 -4.54389 
-0.748754 1.51247 -4.79283 
1.29801 0.557344 -5.11484 
2.00673e-05 1.06599 -4.51089 
2.08726 -1.00421 -5.17821 
1.24835 1.22648 -5.14455 
-0.892595 0.557586 -4.71092 
-1.93372 -0.674909 -4.45647 
-1.52821 1.18071 -4.6307 
-0.351846 0.0847177 -4.58003 
0.265658 0.165888 -4.63998 
2.03261 0.290043 -5.25236 
-0.817648 1.22688 -4.76789 
1.81493 -0.294657 -5.17749 
-1.50155 0.797193 -4.62137 
-1.33401 1.21012 -4.67637 
-0.85031 1.3433 -4.77547 
2.04938 1.22189 -5.30827 
2.08656 -0.370711 -5.21936 
-1.19455 0.403489 -4.65154 
-0.951803 0.537598 -4.70989 
-1.43206 0.756156 -4.63541 
-1.81658 1.54566 -4.60023 
-0.889273 -0.654607 -4.18985 
1.8231 -0.0104956 -5.18422 
-1.9016 1.25136 -4.57854 
2.23568 0.843094 -5.30655 
2.46144 1.0246 -5.36202 
-0.00138077 0.605033 -4.6166 
1.56544 1.00429 -5.19779 
-1.99717 -0.139575 -4.469 
-1.66634 0.354447 -4.57442 
-1.46054 0.0254144 -4.5871 
-1.63962 1.64687 -4.6445 
1.43237 -0.163044 -4.83641 
-1.29898 -0.774453 -4.55906 
-1.85537 1.44454 -4.58609 
-1.7613 1.61053 -4.61698 
-2.02404 -0.851561 -4.41499 
-1.90534 1.27064 -4.57089 
0.100338 -0.584192 -4.33142 
-1.2446 1.24867 -4.70078 
0.579643 1.47784 -4.612 
-1.87357 0.904677 -4.56554 
1.03967 1.60311 -5.12897 
-0.235252 0.193014 -4.65132 
-1.52331 -0.553531 -4.53004 
2.19665 -0.0367673 -5.25196 
-1.52606 1.06263 -4.63842 
-0.862656 1.41657 -4.77367 
-0.968126 1.17751 -4.73813 
0.3573 0.917681 -4.68341 
2.52269 -0.974939 -5.26558 
-1.51773 -0.428317 -4.54699 
2.26795 0.687769 -5.30364 
-2.06214 -0.67744 -4.41239 
2.00667 1.03214 -5.27268 
-0.627358 -0.467441 -4.26 
-1.72085 1.23927 -4.61048 
0.887086 0.0121364 -4.83783 
-1.7243 0.962132 -4.59462 
-0.64366 1.50879 -4.81184 
-2.0384 0.20281 -4.48546 
-1.01865 -0.967017 -4.10196 
-1.16853 0.491797 -4.66345 
0.949498 0.881044 -4.81244 
-1.16156 1.47316 -4.72075 
0.54044 1.38779 -4.55361 
-1.53922 -0.896178 -4.50372 
-1.29974 1.54553 -4.71861 
0.68402 1.37675 -4.58042 
2.49463 1.34076 -5.38254 
2.03949 -1.12488 -5.08408 
-1.53363 1.18606 -4.62919 
1.62706 1.17734 -5.20585 
-1.22872 1.0644 -4.70069 
2.39402 -0.47941 -5.26959 
1.83366 0.180564 -5.21623 
-1.27775 0.372511 -4.64135 
-1.85482 -0.660695 -4.46489 
1.40653 0.84328 -5.15558 
-0.34106 1.72404 -4.88633 
0.495575 -0.718305 -3.46471 
-2.02247 1.25728 -4.55325 
2.37774 0.848261 -5.32809 
2.02159 0.292531 -5.22858 
1.9401 -0.291267 -5.20092 
-0.911819 -0.306172 -4.30347 
-1.65179 -0.0302825 -4.53605 
0.222799 0.452851 -4.64158 
-1.00296 0.56735 -4.69073 
1.13437 0.540945 -4.84474 
1.84072 -0.189845 -5.22385 
-1.47954 1.04657 -4.65989 
-0.87481 0.917219 -4.73693 
-1.67111 -0.618521 -4.50848 
-1.83763 0.044937 -4.51139 
-1.83771 0.044975 -4.51143 
-1.1573 1.64804 -4.73386 
0.860863 1.3913 -4.6889 
-1.34281 1.48806 -4.68058 
-1.25483 1.18395 -4.6942 
-1.53889 1.24066 -4.63733 
0.861918 0.553111 -4.86991 
0.494517 -0.542942 -4.40529 
0.0970608 -0.0826628 -4.51516 
-0.052985 0.159074 -4.56786 
-1.32144 1.2098 -4.66795 
-0.550472 -0.347198 -4.29082 
1.48106 -0.206899 -4.84312 
-1.33856 1.17736 -4.68033 
-1.41503 -0.881557 -4.50884 
0.440979 -0.0572099 -4.62833 
1.91802 -1.05447 -5.08226 
-1.49571 -0.643979 -4.52794 
-1.31746 0.179345 -4.62247 
-1.56632 -0.0509168 -4.55534 
-2.03632 -0.555242 -4.43672 
1.62915 1.13235 -5.21435 
1.89476 0.731988 -5.23665 
2.13451 -0.706301 -5.20068 
-1.18133 0.502685 -4.66588 
-1.50416 0.868018 -4.62822 
-0.419749 -0.358839 -4.30609 
-2.04574 -0.622355 -4.42226 
-1.39433 0.881805 -4.64486 
-0.44536 0.900864 -4.53928 
1.46617 1.39605 -5.20022 
0.279177 -0.544894 -4.36051 
1.48152 -0.199178 -4.8364 
0.244665 -0.752582 -3.4127 
1.48792 0.701858 -5.1618 
1.76882 1.48051 -5.25389 
-1.40056 -0.393369 -4.57612 
-1.3332 0.00372612 -4.59779 
0.658709 0.622411 -4.76095 
-0.740357 0.988288 -4.76313 
-0.13236 -0.936651 -3.33517 
-1.94774 -0.684915 -4.45492 
0.0515736 -0.587052 -4.32091 
0.742733 -0.448884 -4.52303 
-1.65383 0.371571 -4.57441 
-1.25694 -0.573415 -6.66611 
0.377089 0.623799 -2.78779 
-1.47715 0.732901 -4.62325 
0.172109 -0.562399 -4.34086 
-1.57163 -0.699903 -4.50793 
0.861532 -0.412677 -4.53832 
1.86141 -0.712467 -5.16348 
0.913165 -0.451592 -4.5516 
0.850784 1.71593 -5.09464 
-1.28868 -0.685306 -4.57738 
-1.47011 0.201756 -4.59318 
-0.0102449 1.04249 -4.50677 
1.12536 0.208962 -4.88712 
-0.877678 0.365641 -4.35424 
-0.0081697 -0.636418 -3.3749 
-1.53452 0.0123213 -4.56228 
0.542388 0.20579 -4.69294 
-0.793088 -1.05256 -4.13889 
0.995663 0.552208 -4.87927 
-1.76271 0.0214221 -4.51938 
1.5629 0.667707 -5.17226 
0.311996 -0.0756326 -4.54562 
1.54775 0.681484 -5.18358 
-1.21805 -0.395408 -4.59716 
-1.09282 -0.00412061 -4.64697 
-1.19573 -0.207721 -4.61179 
2.1283 -0.148771 -5.2482 
-1.53562 -0.920678 -4.50077 
0.797583 0.777115 -4.87161 
-0.0708243 -0.512705 -3.54279 
2.2172 -0.507463 -5.2437 
0.109317 0.850043 -4.62285 
-1.50188 0.797509 -4.62208 
-1.4085 1.03732 -4.65092 
0.755716 -0.107689 -4.81111 
1.17879 0.128157 -4.88504 
1.26378 0.673308 -5.11081 
-1.19641 0.407454 -4.65052 
1.59822 -0.00699254 -5.15196 
1.28027 0.599968 -5.11564 
1.4531 1.38365 -5.16341 
1.16234 -0.448881 -4.59884 
-0.365544 0.566091 -4.64365 
0.587298 0.17752 -4.69574 
-0.333089 -0.442766 -4.32306 
-0.21566 -0.353989 -4.35068 
-1.58264 0.178764 -4.58142 
0.322032 0.248994 -4.56405 
1.98654 0.797421 -5.25837 
0.222505 1.48555 -4.56478 
-1.21891 -0.0986048 -4.62191 
2.48225 0.425076 -5.33663 
-0.327392 0.306651 -4.62979 
-1.21846 -0.0982868 -4.62134 
0.340588 0.744664 -4.71456 
-0.916322 0.807891 -4.72742 
-1.41406 1.35216 -4.68011 
1.64517 1.20707 -5.21934 
1.10556 0.415647 -4.89044 
1.10292 -0.344377 -4.61142 
-1.6221 -0.0647577 -4.53319 
-1.07116 -0.128194 -4.64561 
-0.0692746 -0.14326 -4.55811 
0.704605 1.37724 -4.5852 
-1.19217 0.158188 -4.63087 
-1.22359 0.738968 -4.67801 
-1.15494 0.522776 -4.67862 
-0.595499 0.346832 -4.57075 
-1.61077 0.568007 -4.59462 
-1.61502 0.223348 -4.56419 
-1.67448 -0.0353568 -4.53381 
-1.26636 -0.409215 -4.58854 
-1.1147 -0.226477 -4.6156 
-0.159251 -0.21448 -4.51285 
-0.0619248 -0.491519 -3.33798 
-1.95936 -0.547779 -4.44983 
0.371986 -0.750105 -3.43912 
2.3203 0.684987 -5.31449 
1.35759 1.42904 -5.18557 
-0.925617 -0.431329 -4.2138 
0.198433 -0.656347 -3.41322 
-1.68132 -0.13374 -4.52101 
-1.46768 -0.102294 -4.57414 
-1.59534 0.02703 -4.55925 
-1.58418 0.0299982 -4.5623 
-0.907936 0.940009 -4.7329 
-2.08819 -0.675595 -4.41371 
2.22644 -0.469069 -5.23488 
-0.564733 1.32535 -4.82235 
-1.61924 0.586602 -4.58666 
-1.42564 1.45218 -4.67563 
-0.863563 0.287993 -4.36611 
0.0448506 1.05555 -4.50976 
-1.50168 0.18164 -4.59651 
-1.48549 0.192414 -4.5895 
1.77437 -0.144048 -5.17581 
-0.0829175 -0.548771 -3.34191 
0.571694 0.00343535 -4.6895 
0.781108 -0.634708 -3.52596 
2.3768 -0.979183 -5.23428 
2.01876 -0.901997 -5.17254 
2.2402 0.599715 -5.29498 
1.67309 1.13386 -5.24888 
0.354582 1.45103 -4.56194 
-1.57287 -0.215282 -4.53773 
0.401607 -0.454363 -4.46375 
-0.896732 1.11571 -4.75366 
-0.593702 1.33604 -4.81147 
-0.652618 -0.422643 -4.25907 
-0.80959 -0.195774 -4.41838 
-1.59127 0.490798 -4.58433 
-1.99581 -0.0885168 -4.49125 
-1.48724 1.37622 -4.62815 
0.017277 1.25044 -4.54574 
-1.42491 0.333629 -4.61233 
-0.0549293 0.133468 -4.56849 
-1.65341 -0.269489 -4.51646 
-1.5981 1.37111 -4.6402 
-1.818 -0.265542 -4.49823 
-0.588892 0.46063 -4.57821 
0.193458 -0.806679 -3.40537 
2.34129 0.632471 -5.31618 
1.94426 -0.774739 -5.1736 
-0.573482 1.43098 -4.82678 
-0.609678 -0.333624 -4.27128 
0.962723 -0.376493 -4.56855 
-1.97842 0.356679 -4.50171 
1.40802 0.0922747 -4.87639 
-1.69393 -0.0962125 -4.52309 
-1.92594 0.060336 -4.48799 
0.266739 0.223691 -4.56452 
-0.103741 0.107129 -4.55768 
-1.035 0.880095 -4.68535 
-1.20962 0.39389 -4.65076 
2.49933 -0.719261 -5.27841 
-1.62954 -0.467455 -4.50855 
0.0316108 1.49198 -4.50907 
-0.673252 1.64486 -4.82765 
0.262762 1.49391 -4.56956 
0.541595 1.49885 -4.60098 
-0.858238 1.03097 -4.75584 
2.37679 1.58225 -5.37796 
-1.87057 0.97575 -4.56923 
0.211773 1.53484 -4.56521 
2.11818 -0.0632003 -5.24605 
-0.00112268 -0.71918 -3.37596 
-0.873716 -1.04599 -4.12141 
1.53715 -0.429895 -4.67146 
-1.53871 -0.413799 -4.56214 
-0.0534323 -0.926786 -3.30405 
-1.19859 0.4099 -4.64906 
2.26792 1.47282 -5.34564 
1.78092 -0.0606613 -5.15551 
-1.37266 -0.885393 -4.53341 
0.181925 0.821049 -4.65483 
0.337118 1.24405 -4.04888 
0.157526 1.50674 -4.54976 
-0.58351 -0.333168 -4.28064 
-1.44312 -0.813881 -4.53659 
-0.630023 1.6509 -4.82635 
-1.29347 -0.309635 -4.58018 
0.324799 1.22907 -4.60435 
-0.738352 1.41674 -4.79676 
-1.48537 -0.909896 -4.5114 
0.416022 0.332979 -4.65712 
2.00753 0.694113 -5.26099 
1.63509 -0.0247913 -5.14954 
-0.985032 1.2083 -4.7335 
0.265415 2.09051 -6.82407 
-1.2028 0.373983 -4.66262 
1.76098 0.389864 -5.20324 
-0.628933 1.3574 -4.78651 
-1.72254 -0.152054 -4.51297 
1.76328 0.174773 -5.20044 
2.19351 -0.571007 -5.21909 
-0.789395 1.08675 -4.76212 
2.32488 0.373056 -5.29854 
-1.21693 -0.18255 -4.61062 
1.94378 0.346108 -5.22552 
1.96883 -0.195871 -5.20809 
-0.608152 1.66078 -4.83615 
-1.30167 1.22834 -4.68629 
1.97172 -0.574271 -5.18481 
-1.00313 0.856418 -4.72155 
1.73616 0.270199 -5.18665 
1.9208 0.116779 -5.21746 
-1.15825 0.704375 -4.69006 
-1.31551 -0.920348 -4.55088 
1.97923 0.078604 -5.22142 
-1.98767 0.72494 -4.52411 
1.81468 0.826128 -5.23547 
2.19028 -0.151309 -5.25059 
-1.35795 1.25954 -4.6842 
0.660053 1.03668 -4.63695 
1.69959 0.0947602 -5.17684 
1.38481 0.812816 -5.14981 
-1.64518 -0.3948 -4.51616 
0.05169 -0.53543 -4.32015 
-0.756233 1.55003 -4.79205 
-1.14706 -0.104938 -4.63596 
2.11387 1.14548 -5.30961 
-1.72411 1.01191 -4.5891 
1.19866 1.45784 -5.1461 
2.02649 0.15426 -5.23066 
-1.23473 -0.13342 -4.61709 
0.40014 1.36573 -4.50636 
-2.07924 -0.54508 -4.42182 
-0.293521 -0.434235 -4.32961 
-1.61314 -0.85038 -4.49305 
-0.572499 -0.323594 -4.28368 
-1.39231 -0.668822 -4.54334 
-2.05885 0.418201 -4.49323 
1.4435 1.14682 -5.17545 
-1.74368 -0.169718 -4.50945 
-1.35074 0.189618 -4.61421 
-0.0574559 -0.507472 -3.33022 
-1.13864 1.05312 -4.70751 
-0.45922 0.376692 -4.61815 
0.366319 0.581625 -2.78731 
-1.38704 1.17379 -4.6701 
2.09956 0.863257 -5.27794 
-1.15538 0.862888 -4.69724 
-1.9469 -0.0878611 -4.48313 
-1.80536 0.905249 -4.57623 
-0.944393 -0.455503 -4.21392 
-0.313276 -0.408866 -4.33156 
0.540961 -0.0883285 -4.68333 
-1.51947 0.861621 -4.61814 
0.851096 -0.445003 -4.54009 
-1.34677 -0.581969 -4.56489 
-1.5987 0.0620692 -4.5581 
-1.2455 -0.784432 -4.56716 
1.58348 1.17503 -5.1546 
-0.310991 -0.38688 -4.32919 
-1.53822 -0.272814 -4.5454 
-1.92915 1.2475 -4.56369 
0.00374474 0.430282 -4.57647 
-0.663725 1.46463 -4.80914 
-0.753684 1.4268 -4.79452 
-1.41149 0.0340249 -4.59458 
2.1964 1.00081 -5.31218 
-1.29717 1.06471 -4.68002 
-0.37862 0.587348 -4.64553 
-0.879558 -0.372069 -4.22501 
0.306048 0.852823 -4.67321 
-1.22127 0.0825931 -4.62461 
-0.356196 -1.00415 -3.49369 
1.57694 -0.535138 -4.6677 
0.645885 0.424249 -4.70056 
0.0600762 1.37407 -4.45538 
2.23593 0.771456 -5.30029 
-1.56941 0.891271 -4.61866 
0.147114 1.08911 -3.54336 
-1.94145 -0.804157 -4.43962 
1.48871 -0.225319 -4.8206 
0.603838 0.936655 -4.61712 
-1.47618 1.47713 -4.66305 
1.90415 -0.730206 -5.16908 
-0.782807 1.36246 -4.77865 
1.87954 0.372068 -5.21687 
-0.0547045 2.127 -6.83342 
0.695903 -0.652298 -3.51109 
2.0076 0.712269 -5.25753 
-2.04962 -0.152296 -4.46172 
-0.139726 1.31384 -4.56169 
2.24365 1.30582 -5.33276 
-0.581311 1.55111 -4.82693 
1.66102 -0.0250395 -5.15461 
-1.34501 0.194132 -4.61134 
0.408048 -0.277001 -3.28812 
-1.28527 -0.549456 -4.57503 
-0.766591 1.43761 -4.79116 
0.934246 -0.730214 -3.54403 
1.36395 1.15522 -5.1599 
0.195256 -0.0396411 -4.48562 
1.43861 0.231128 -4.78626 
2.13074 0.505525 -5.26408 
-1.01156 0.856608 -4.71631 
2.21319 1.5976 -5.34466 
-1.14148 0.12336 -4.64186 
1.35556 0.0549074 -4.90487 
1.1332 0.819409 -5.10713 
1.58888 1.12161 -5.19727 
1.03871 0.989966 -4.778 
-2.07037 -0.157161 -4.45498 
-0.90931 0.545457 -4.69241 
-1.48467 -0.151372 -4.56281 
-1.60183 -0.887999 -4.49521 
-1.30342 1.22986 -4.68968 
0.0399365 -0.411449 -4.39222 
0.386755 -0.446676 -4.46317 
1.40295 0.851073 -5.16378 
1.10175 1.23396 -5.11336 
2.32967 1.18883 -5.34515 
-1.35501 -0.774695 -4.55087 
-0.688979 0.941898 -4.77037 
-1.53301 1.19279 -4.62738 
1.29079 0.844506 -5.1356 
-0.703945 0.888831 -4.76392 
0.696429 1.05004 -4.63683 
0.392653 1.49551 -4.59292 
-1.92878 0.0304548 -4.49257 
-0.571524 -0.433634 -4.27807 
-1.01169 0.673784 -4.73844 
-1.25089 -0.0932182 -4.61423 
-1.94985 -0.853227 -4.45513 
1.88144 -0.884789 -5.14975 
-1.8724 -0.235729 -4.47779 
-1.52348 -0.207278 -4.54423 
-1.52747 1.25452 -4.64208 
-0.794763 1.67967 -4.79795 
-1.96587 0.00420966 -4.48643 
-1.66258 1.59587 -4.64358 
2.35483 0.423901 -5.3027 
2.34257 -0.676211 -5.25267 
0.0649836 -0.713519 -3.38611 
0.490887 -0.199448 -4.63161 
0.465442 1.53031 -4.58691 
-1.4786 -0.582269 -4.53108 
-1.70086 1.26245 -4.6132 
2.36759 0.507617 -5.31509 
-2.05018 1.12272 -4.53865 
-1.26633 1.61299 -4.71244 
2.45964 -0.176149 -5.29868 
-1.12013 1.04943 -4.71164 
-1.45245 -0.726812 -4.52953 
1.81675 1.15515 -5.26061 
-0.876148 1.34376 -4.76035 
-1.45869 -0.91948 -4.518 
-1.18344 0.0238617 -4.6331 
1.59006 -0.949658 -4.6355 
0.428698 0.831903 -4.70742 
-0.984568 1.32526 -4.7549 
-1.32204 1.17698 -4.68068 
0.115328 -0.500716 -4.40014 
1.29068 0.051895 -4.90576 
0.803953 -0.445821 -4.53325 
-1.9061 -0.209361 -4.48064 
-1.15577 1.1736 -4.71136 
1.25844 0.0676494 -4.89807 
-1.70673 0.638169 -4.5515 
-1.35476 0.562774 -4.63679 
1.95491 -0.73915 -5.19076 
-1.2999 -0.223116 -4.59074 
-0.728586 -0.388092 -4.25695 
-0.1551 -0.751556 -3.42949 
-2.03779 -0.915743 -4.38371 
-0.671593 0.881789 -4.77251 
1.32734 1.6221 -5.1907 
-1.59626 -0.743466 -4.50073 
-0.607077 1.46796 -4.82227 
1.89743 -0.706613 -5.17645 
2.17825 0.328319 -5.27225 
-1.79815 -0.697115 -4.48425 
-1.49041 1.36202 -4.64652 
-0.743299 -0.856785 -4.20697 
-0.360395 2.77118 -13.3114 
2.27297 0.669467 -5.29536 
-1.67516 -0.922155 -4.5159 
0.556314 -0.449933 -4.48458 
1.69058 -0.040492 -5.16027 
2.34799 0.529425 -5.31279 
-0.597327 0.384484 -4.57541 
-1.49697 1.1417 -4.65135 
-1.46046 -0.294496 -4.54914 
-0.034491 1.57038 -5.02311 
-0.715938 1.44201 -4.79752 
2.51494 0.520375 -5.35033 
-0.777043 1.57388 -4.79054 
-0.105165 0.398673 -4.57024 
-1.2444 1.05865 -4.68945 
2.08258 -0.630111 -5.18385 
2.57469 1.3503 -5.40017 
-0.00400595 -0.508789 -4.39694 
2.43219 0.860244 -5.33995 
-1.99608 -1.02229 -4.31075 
0.625194 0.108327 -4.6926 
-1.74782 -0.747004 -4.47461 
0.660257 -0.636836 -3.50134 
-0.841365 1.15056 -4.7611 
0.213193 -0.833576 -3.40756 
-0.0529223 0.142623 -4.57199 
0.183339 -0.377843 -4.41329 
2.09748 -0.319017 -5.2265 
2.13794 1.42909 -5.32106 
0.162427 1.49899 -4.55269 
2.18509 -0.988076 -5.20373 
-0.990326 1.16991 -4.73582 
-1.10882 -0.0015955 -4.63929 
-0.397823 -0.445 -4.31011 
2.25373 -0.335056 -5.23271 
-0.729598 -0.37921 -4.25741 
2.47331 1.32631 -5.36325 
-0.796406 1.21941 -4.77162 
-1.30849 -0.18627 -4.59294 
-1.52798 1.37196 -4.65087 
-1.34376 1.49457 -4.68852 
1.40324 1.02021 -5.16349 
0.0903087 0.650001 -4.62256 
-1.38292 0.493361 -4.62004 
-1.70824 -0.0712141 -4.52461 
0.891218 0.847698 -4.85321 
-0.605436 1.59653 -4.83442 
2.27767 0.349341 -5.29568 
0.920488 0.0583554 -4.79692 
2.10586 -0.573568 -5.20051 
-1.79853 -0.874654 -4.47674 
-1.51615 -0.29634 -4.54884 
0.144365 -0.496655 -4.40303 
1.11253 1.46405 -5.14415 
2.39038 0.860515 -5.3302 
-2.04527 -0.843922 -4.40721 
-0.960651 0.912127 -4.72236 
0.807586 0.870164 -4.85292 
-0.962141 1.5545 -4.76008 
-1.89542 -0.0895165 -4.49314 
2.41031 -0.682932 -5.26359 
2.23607 0.191348 -5.2804 
-1.88792 -0.523802 -4.46135 
-1.74021 -0.00269783 -4.52484 
-0.532003 1.39849 -4.82545 
0.625013 0.360671 -4.71457 
-1.14074 0.124496 -4.64155 
1.76927 -0.286455 -5.17392 
-0.378601 0.714411 -4.63009 
-0.463322 0.90894 -4.53588 
2.11494 -0.796733 -5.1973 
-1.31324 -0.055829 -4.60078 
1.14984 0.0510141 -4.90191 
0.477952 1.49403 -4.62213 
2.22564 0.222955 -5.28251 
1.24166 1.37254 -5.16142 
2.28291 -0.179019 -5.26919 
-1.40178 0.187796 -4.6054 
-1.33465 1.18968 -4.67491 
-1.25441 -0.0950714 -4.62059 
1.91851 0.293093 -5.23053 
-0.841049 1.14947 -4.76017 
-1.17992 1.16938 -4.70581 
2.52225 0.0251102 -5.33153 
-0.797152 1.22354 -4.77098 
-1.03714 1.05355 -4.72606 
-1.10334 0.530093 -4.67402 
2.26614 -0.745727 -5.23546 
-1.41975 -0.211136 -4.56764 
0.646341 -0.541978 -4.4331 
1.85019 1.62776 -5.27898 
0.135232 1.21537 -4.58056 
0.472557 -0.441464 -4.46945 
-0.0661602 -0.338836 -4.3701 
2.30102 -0.0536466 -5.28338 
1.91826 -0.892864 -5.16707 
-1.37107 -1.00142 -4.45085 
-1.75544 0.0263615 -4.52953 
1.02756 0.258137 -4.89431 
-1.20195 1.09627 -4.69544 
-1.48182 -0.704952 -4.54438 
-1.06593 0.874963 -4.71475 
