ply
format ascii 1.0
comment VTK generated PLY File
obj_info vtkPolyData points and polygons: vtk4.0
element vertex 1718
property float x
property float y
property float z
element face 0
property list uchar int vertex_indices
end_header
-0.168804 -1.06801 -3.36401 
1.73938 1.2228 -5.00182 
2.49736 0.413158 -4.97939 
-0.943263 -0.18454 -4.64957 
0.957159 1.48249 -5.01048 
-1.75913 0.168372 -4.93448 
2.26612 0.377006 -4.95793 
-0.122683 -0.44132 -4.46115 
0.281625 -0.0317796 -4.55636 
-0.365222 0.683052 -4.78067 
-0.1262 -0.450652 -4.46467 
-1.41554 1.41171 -5.00179 
2.41062 -0.7302 -4.89374 
-1.35446 1.65755 -5.01705 
-1.98976 0.719715 -4.95655 
-1.88712 0.703694 -4.97057 
-0.976282 1.20133 -4.99669 
1.73998 -0.444985 -4.90989 
1.52517 0.993867 -4.98896 
0.932986 0.688643 -4.70352 
-1.61548 -0.176577 -4.91227 
-0.698708 -0.379195 -4.46392 
-0.0031695 -0.458711 -4.46149 
2.37103 -0.747531 -4.90056 
-0.537826 0.125196 -4.70019 
-1.44502 1.27892 -4.99627 
-0.590018 0.143043 -4.74384 
0.00220491 0.719426 -4.6882 
-0.898216 0.947086 -4.98088 
-0.171233 0.444432 -4.64829 
0.559081 1.13467 -4.59622 
-0.0421326 0.803302 -4.68743 
-0.119775 0.405703 -4.66599 
1.48189 -0.457085 -4.46383 
1.31379 0.73914 -4.9698 
1.28798 0.60473 -4.96495 
1.31629 1.0652 -4.9904 
-1.74038 -0.00783217 -4.91361 
0.928662 -0.388073 -4.46438 
0.798319 0.0509027 -4.7643 
1.82746 0.903546 -4.99147 
-1.56844 1.56792 -5.00561 
-1.99036 0.719626 -4.95802 
-1.37088 1.65995 -5.0181 
-1.9214 -0.896207 -4.88553 
-0.838392 1.60674 -5.0082 
-1.31126 0.902519 -4.98146 
-1.42308 1.11804 -4.9879 
0.226188 0.00963 -4.51479 
2.22994 0.894538 -4.97083 
-1.16328 -0.362666 -4.46206 
-1.49395 0.0098864 -4.93456 
0.0223455 -0.77079 -3.42933 
2.20995 0.891852 -4.98388 
0.397147 -0.10956 -4.64671 
0.19148 -0.368958 -4.46515 
2.07819 -0.288912 -4.90704 
2.54567 -0.457641 -4.90694 
1.59726 1.07089 -4.98976 
-0.145444 -0.310958 -4.52625 
-1.68893 -0.843528 -4.88 
1.76695 0.440741 -4.9672 
0.191914 -0.36647 -4.46756 
-1.99923 0.386245 -4.94192 
1.50363 1.29961 -5.02027 
0.316131 0.559825 -4.68168 
-0.801942 1.06137 -3.81619 
2.31434 1.2933 -5.00918 
-1.46669 1.28669 -4.99495 
-0.696213 1.49435 -5.00892 
0.406371 1.11221 -4.58145 
-1.74274 -0.895947 -4.88186 
-1.11791 0.916217 -4.98095 
0.884313 -0.387195 -4.46652 
-0.898206 0.947143 -4.98064 
0.559714 1.13795 -4.60511 
0.386961 0.589955 -4.59552 
2.43303 -0.022153 -4.94924 
1.38431 -0.383196 -4.45503 
-1.43871 0.908477 -4.97866 
-0.173008 0.350248 -4.66351 
-1.62272 1.22484 -4.99298 
-1.99758 0.000577203 -4.9236 
0.713185 0.685577 -4.79712 
1.89952 1.48243 -5.02561 
1.85148 0.766486 -4.99759 
-0.337377 0.377097 -4.77924 
0.196455 0.00909113 -4.47915 
-0.976674 -0.174593 -4.64038 
1.10964 1.52257 -5.03378 
-0.530623 0.11918 -4.69345 
-1.75828 0.199455 -4.94853 
2.25087 1.09002 -4.9949 
1.00997 -0.446795 -4.46517 
-2.2229 1.31509 -4.98946 
0.909216 -0.392144 -4.46789 
-1.30866 -0.0990187 -4.93036 
2.19171 -0.188824 -4.9398 
-1.51022 -0.894466 -4.87046 
-1.15875 -0.350087 -4.46338 
-1.96106 0.394982 -4.95772 
-1.59131 -0.901216 -4.87691 
-1.09312 0.883484 -4.97679 
0.414324 1.12151 -4.58984 
1.26325 -0.376515 -4.46504 
1.89155 1.49244 -5.01855 
0.150687 -0.840041 -3.42545 
-0.572716 -0.381375 -4.46377 
1.86182 0.585867 -4.97689 
-2.23106 0.456269 -4.94424 
-1.63567 -0.704348 -4.89141 
0.946207 0.134271 -4.76908 
-0.791199 0.908862 -4.97593 
0.74601 1.13832 -4.71984 
-0.751079 1.46467 -5.00761 
0.681662 0.184149 -4.77997 
2.42629 -0.732459 -4.88984 
1.48674 -0.361441 -4.46587 
-1.94143 -0.227723 -4.8963 
-1.32571 0.175796 -4.94348 
-1.66848 0.549459 -4.94778 
-0.808227 1.4032 -5.00313 
0.87854 0.943523 -4.72876 
-0.0547341 0.803864 -4.6842 
0.0140504 -0.0219833 -4.57877 
2.40057 1.15914 -4.9986 
-0.97635 1.20107 -4.99733 
1.20623 -0.310153 -4.64557 
1.15279 1.55696 -5.01864 
2.09365 1.52453 -5.02368 
-1.12247 1.02901 -4.97754 
2.3201 -0.258276 -4.9186 
-1.10981 1.39692 -5.01064 
-1.1383 -0.436712 -4.45805 
-2.04981 1.47808 -4.99995 
1.10241 -0.0567596 -4.78768 
1.46749 1.198 -4.99785 
-1.64077 0.748088 -4.9716 
-1.65409 0.732482 -4.96911 
1.83564 0.158112 -4.9436 
0.24812 0.581994 -4.68046 
0.223711 -0.0732841 -4.56605 
-1.21154 1.46634 -5.00491 
-0.114733 -0.83123 -3.42904 
-1.63224 -0.236445 -4.90324 
-1.03703 0.894335 -4.96488 
-0.780594 -0.346732 -4.4651 
1.44425 0.754376 -4.9741 
1.80819 0.2698 -4.94554 
-0.49126 0.775944 -4.77739 
-0.721024 1.41054 -4.99904 
1.47087 -0.434481 -4.46274 
2.08274 0.411477 -4.96177 
-1.69821 0.215496 -4.93899 
0.744542 1.12412 -4.71106 
0.376792 1.15959 -4.58672 
0.29336 0.55436 -4.70905 
-1.39772 1.11751 -4.98211 
0.0610589 1.56174 -4.60823 
0.284641 0.312742 -4.65122 
0.140141 0.470957 -4.68398 
1.94104 0.740647 -4.98205 
2.4789 -0.722531 -4.88652 
0.931349 1.44153 -5.01178 
2.02532 0.418184 -4.95849 
2.47997 -0.724091 -4.89106 
-0.0661 -0.567364 -4.38622 
-0.589065 1.74309 -5.01446 
0.869375 0.30774 -4.79151 
-0.921378 -0.156577 -4.65515 
2.57309 0.4488 -4.96482 
2.57024 0.411686 -4.96353 
-0.971412 -0.114523 -4.6504 
-1.75418 1.45179 -5.00009 
1.37385 0.880235 -4.98844 
-1.75391 1.28646 -4.99244 
-0.736023 -0.409336 -4.46638 
-0.11633 0.450979 -4.65189 
1.04892 -0.417224 -4.45981 
-1.53853 -0.869004 -4.87498 
2.24596 -0.725953 -4.88791 
-0.205436 0.396085 -4.66761 
-0.188438 1.14651 -4.57564 
2.35817 0.409832 -4.96164 
-1.45958 -0.203241 -4.91274 
0.291715 0.554565 -4.70446 
-1.41882 0.576248 -4.96233 
-1.10719 -0.408951 -4.46488 
-0.467158 1.50071 -4.59351 
-1.68134 -0.722773 -4.88077 
-1.30887 0.203317 -4.9374 
-0.112396 -0.672384 -3.435 
-0.275628 0.667848 -4.73825 
0.615227 -0.792625 -3.43075 
-1.9891 0.583801 -4.9511 
-1.59419 1.40956 -5.00127 
0.8529 -0.935536 -3.57505 
1.29322 -0.423005 -4.468 
2.06817 0.877385 -4.96064 
-1.97735 0.271987 -4.94336 
-1.45862 -0.205072 -4.91141 
0.63247 -0.443976 -4.46511 
-0.225362 -0.366574 -4.46488 
2.32654 -0.452461 -4.90607 
-2.02986 1.27717 -4.99548 
0.0559305 -0.0466592 -4.53076 
-1.43487 1.2934 -4.99619 
2.53355 0.559651 -4.97422 
-0.925362 1.41456 -5.00156 
-0.381531 -0.765264 -3.42976 
2.35408 1.41405 -5.0131 
-0.14764 0.033779 -4.65524 
-2.02243 1.67508 -5.01283 
-0.104182 0.0934756 -4.65926 
1.43531 0.56086 -4.9689 
-1.77705 1.08918 -4.98046 
-1.74413 -0.693373 -4.88887 
-0.00300122 -0.0349312 -4.57608 
2.21192 -0.885772 -4.8913 
0.164663 0.768966 -4.7214 
-1.47334 -0.933352 -4.87603 
0.197219 0.324662 -4.58881 
0.291212 0.371387 -4.65281 
-1.95623 -0.91415 -4.87299 
0.833627 0.775762 -4.78009 
1.76978 0.901191 -4.98663 
-0.590081 -0.718709 -3.61041 
0.279598 0.322629 -4.6643 
2.17151 0.581928 -4.96428 
-1.84918 -0.573089 -4.89764 
-0.697288 1.47322 -5.00449 
-1.77047 0.162016 -4.93295 
-0.99885 0.212302 -4.65375 
1.74796 -0.216422 -4.92453 
-1.98449 0.582927 -4.94773 
2.59064 1.29651 -5.00904 
1.12854 -0.333615 -4.47619 
-1.10362 1.2377 -4.98998 
-1.69318 0.0108711 -4.93183 
-1.55005 -0.0985516 -4.92429 
1.10586 -0.371746 -4.4721 
-0.555813 -0.832744 -3.56956 
-2.07011 1.67198 -5.01599 
-1.86929 1.07783 -4.98153 
1.99493 0.91672 -4.98519 
-0.530097 0.116224 -4.69403 
-1.11896 -0.842208 -4.42401 
0.0114649 1.56772 -4.59447 
-1.99391 -0.0136216 -4.95825 
1.39136 1.21435 -5.0045 
-0.801983 1.57908 -5.0007 
0.070278 0.0171597 -4.538 
0.683299 -0.461094 -4.45844 
2.248 1.33002 -5.01569 
-1.08112 -0.376391 -4.46426 
0.156656 0.28288 -4.59672 
1.85285 0.331341 -4.96996 
-1.73034 1.35499 -5.00016 
-1.58313 -0.584825 -4.89127 
0.257869 0.953868 -4.69388 
2.0102 -0.280766 -4.92812 
-0.590526 0.0530951 -4.75697 
0.0813289 -0.551051 -4.38893 
-0.500935 -0.690279 -3.51281 
-1.84701 -0.647351 -4.88695 
0.931977 -0.375951 -4.46399 
0.491597 -0.369769 -4.46057 
-0.978127 -0.0797146 -4.67011 
0.294993 -0.660274 -3.43642 
1.8938 0.890773 -4.98393 
0.792579 -0.462771 -4.46593 
1.21613 1.50553 -5.01626 
-0.3725 -0.413188 -4.46598 
0.359991 0.699973 -4.68438 
2.00223 -0.725184 -4.90257 
-1.53736 0.899122 -4.97506 
2.19342 0.770449 -4.97101 
0.312675 -0.959345 -3.37175 
-1.72812 -0.565785 -4.89657 
-1.05256 1.3502 -5.00035 
1.46949 -0.430699 -4.46306 
-1.43124 1.34496 -4.9941 
-0.419192 0.283815 -14.3505 
1.19001 -0.323854 -4.66019 
-0.0327585 -0.518619 -4.45679 
1.95728 -0.572616 -4.91409 
-1.60142 -0.165496 -4.91536 
1.85103 1.33251 -5.01007 
-1.51714 0.902657 -4.97486 
1.98196 0.400046 -4.96305 
-0.496237 -0.450622 -4.45936 
-0.502581 0.433498 -4.78401 
-1.61698 1.10002 -4.98791 
0.550344 -0.786873 -3.43142 
-1.50433 -0.854274 -4.88278 
-0.526756 -0.0293872 -4.76073 
-0.955286 1.09227 -4.98803 
1.74596 -0.236201 -4.9113 
-1.5792 -0.242375 -4.91677 
-1.91518 0.397901 -4.94952 
0.450112 -0.0531292 -4.65567 
-1.90325 -0.552739 -4.87889 
-0.955028 0.725893 -4.96331 
0.119709 0.364087 -4.69482 
-1.70937 1.74459 -5.01363 
-1.88421 -0.896728 -4.87617 
1.83441 -0.708071 -4.90333 
-0.107179 1.02737 -4.62359 
2.28197 1.37473 -5.01286 
1.09489 -0.357351 -4.46664 
-1.61203 0.918136 -4.97333 
-1.89312 -0.676971 -4.88633 
-0.494217 0.732234 -4.77608 
2.25222 1.54758 -5.03528 
1.70762 -0.216108 -4.92361 
-1.4389 1.67641 -5.02169 
1.76046 0.00872559 -4.9334 
-1.75088 -0.411035 -4.90231 
-1.45321 0.32559 -4.94086 
1.43887 1.20529 -4.9995 
-0.516166 0.467713 -4.76387 
2.41476 1.1342 -4.99136 
0.0269346 1.03553 -6.51555 
-1.90432 -0.910574 -4.86268 
-1.77386 1.45355 -4.99542 
0.173566 -0.384225 -4.46313 
-0.589962 1.36617 -4.99739 
1.89231 -0.735634 -4.89868 
-0.520153 0.124103 -4.69347 
-0.286471 -0.734063 -3.43379 
1.96556 0.587228 -4.96509 
-2.01999 -0.921731 -4.86674 
-0.496029 0.632566 -4.77247 
-1.37562 0.187031 -4.93492 
-1.73562 0.187139 -4.94003 
-1.84844 -0.320338 -4.90135 
0.861739 0.179897 -4.76482 
1.82591 -0.452902 -4.9125 
-1.42536 -0.337189 -4.91128 
-1.14284 0.895073 -4.98109 
1.42681 1.08774 -4.99395 
-1.99843 -0.693172 -4.8947 
1.05436 -0.361451 -4.48269 
-1.49682 -0.920586 -4.88143 
0.769582 -0.497524 -3.47066 
2.08155 0.875082 -4.98073 
-0.894644 1.04117 -4.98132 
-0.528037 0.332922 -4.78374 
0.362733 -0.644416 -3.43857 
-1.28606 1.53327 -5.01116 
1.44557 -0.465413 -4.45788 
1.5109 0.927044 -4.98984 
-1.86625 1.06482 -4.97091 
2.5717 0.912729 -4.99033 
2.23621 0.769764 -4.96378 
2.01631 0.884417 -4.96681 
2.07805 0.00418165 -4.93987 
-1.99172 0.341253 -4.94195 
-1.19781 1.47405 -5.00815 
-1.61075 -0.395163 -4.92432 
-1.49086 -0.0844895 -4.92431 
-1.43904 0.335733 -4.9463 
2.49524 -1.02246 -4.84696 
-1.54407 -0.622761 -4.88887 
-0.38593 -0.442197 -4.46126 
-1.68065 -0.723305 -4.87896 
2.03746 -0.017138 -4.94426 
0.64525 -0.45972 -4.46464 
-1.7865 -0.901083 -4.88532 
-1.73255 0.241924 -4.94119 
1.65338 0.0133025 -4.92492 
-1.04269 0.123756 -4.68944 
1.19112 -0.458077 -4.46602 
-1.85029 0.403769 -4.94909 
-1.0883 0.901522 -4.97795 
-1.40855 0.908548 -4.98948 
-1.50918 0.617953 -4.97066 
-1.69347 -0.424127 -4.90704 
-0.568814 -0.369952 -4.46363 
2.23612 -0.729945 -4.88445 
0.666325 -1.07731 -3.36452 
-0.864984 1.67127 -5.01451 
0.169996 0.598598 -4.67482 
-1.88222 -0.838102 -4.87226 
0.432173 -0.536649 -4.39065 
-0.476365 0.13422 -4.72335 
2.41148 1.20274 -4.99669 
1.61531 0.998814 -4.9901 
0.397479 -0.832344 -3.42833 
-1.57068 1.48333 -5.00454 
1.65457 0.0141642 -4.92511 
-1.83017 0.192408 -4.94646 
0.46663 0.389759 -4.67611 
-0.116441 0.460417 -4.65327 
1.74868 0.560492 -4.95213 
0.186795 0.032104 -4.47278 
0.569037 -0.580438 -4.39022 
-1.43864 1.52817 -5.00435 
0.140483 0.375097 -4.69602 
1.81324 0.415107 -4.96962 
-1.42385 1.09109 -4.98664 
1.99654 -0.262057 -4.93547 
2.04044 0.739929 -4.97701 
-1.91132 0.952409 -4.96984 
1.62032 0.214703 -4.95154 
-1.15617 1.71897 -5.01001 
1.97172 -0.272956 -4.92702 
-1.19119 -0.521049 -4.45847 
0.146649 0.195288 -4.677 
1.83521 1.24851 -5.00269 
2.07193 0.198328 -4.95013 
-1.64081 0.909992 -4.96687 
2.02663 1.54378 -5.03201 
-1.91925 0.70792 -4.94931 
-1.35977 -0.22629 -4.91654 
2.57175 0.90927 -4.9903 
-1.38041 -0.111249 -4.91808 
-1.38246 -0.112119 -4.93137 
-0.556868 -0.676805 -3.58316 
-1.64993 1.11819 -4.98608 
1.28281 -0.53132 -4.4544 
-1.83629 -0.889475 -4.86521 
-1.92813 0.0115992 -4.91472 
-1.57628 -0.833553 -4.87588 
-1.67053 1.11497 -4.97575 
-1.02828 0.575834 -4.96487 
-1.01398 0.555115 -4.9588 
0.394684 -0.674615 -3.43644 
0.0429273 -0.380104 -4.46743 
-1.41223 0.742804 -4.9751 
-2.06001 -0.0549531 -4.91284 
-1.07116 0.572562 -4.95217 
1.31255 -0.103326 -4.65745 
-1.91518 0.57491 -4.95294 
-1.59845 -0.119098 -4.9276 
2.22019 0.754084 -4.97643 
-0.145396 0.329173 -4.6684 
-1.75738 0.579311 -4.96222 
-2.22911 -1.14862 -4.75224 
-1.50769 1.55367 -4.99928 
-0.174434 -0.0993229 -4.63126 
-2.06068 1.74101 -5.01511 
1.2924 0.0942239 -4.75239 
1.54322 1.48861 -5.01904 
-1.53866 1.27677 -4.99606 
-0.926145 1.25626 -4.98101 
-0.339619 0.373488 -4.78068 
2.02254 0.754731 -4.97544 
-1.41428 1.24256 -5.00014 
-1.29738 1.50308 -5.01403 
-0.00935077 -0.112735 -4.60556 
-1.94305 1.67404 -5.00976 
-0.893623 1.49778 -5.00698 
0.721465 0.0499058 -4.77281 
-1.97742 0.356795 -4.95158 
-1.90643 -0.250571 -4.91655 
2.16768 1.24322 -5.0025 
1.88935 -0.130565 -4.94235 
0.278227 -0.644412 -3.43819 
1.60656 0.927015 -4.9824 
-0.438499 0.272562 -4.77867 
-2.19366 -0.102398 -4.91587 
0.410794 -0.719099 -3.43435 
-0.0597022 1.15414 -4.57915 
-1.27758 1.57481 -5.01652 
-0.121307 0.247172 -4.66576 
1.91983 -0.0172571 -4.94 
0.851977 0.627458 -4.77433 
-0.855444 1.55083 -5.00554 
-0.94356 -0.368092 -4.46035 
1.06464 0.397456 -4.77242 
-1.27919 1.40301 -4.99641 
-1.4987 -0.218718 -4.91158 
-1.49841 -0.218353 -4.91027 
-1.40791 1.49093 -5.0068 
-1.16552 0.714277 -4.96619 
-1.51513 -0.0587761 -4.91707 
1.61146 1.02665 -4.99063 
1.19721 -0.340569 -4.47343 
0.674032 -0.933777 -3.37464 
-0.925514 1.54708 -5.00991 
-1.37644 0.182008 -4.9299 
1.41029 -0.423365 -4.46231 
1.85003 1.49679 -5.01941 
1.83491 1.41093 -5.01077 
2.24334 0.194201 -4.95577 
-1.69036 -0.0344036 -4.92593 
-0.934193 -0.468948 -4.461 
-1.05925 1.3048 -4.99671 
1.9593 -0.151117 -4.9354 
1.79274 -0.248125 -4.90871 
-1.97327 -0.266091 -4.92024 
-1.38694 1.39985 -5.00592 
1.28737 1.4786 -5.02644 
0.861097 0.117703 -4.71145 
-1.18263 1.71294 -5.02008 
2.2416 -0.607463 -4.89227 
-1.01564 1.21091 -4.98732 
1.38414 1.26094 -5.00846 
1.69793 1.2254 -5.00185 
1.29699 1.37474 -5.01169 
-0.438281 -0.95565 -3.37158 
-0.0911119 1.11041 -4.57399 
-1.56883 -0.567881 -4.90351 
-1.18375 1.40279 -4.99945 
1.90612 0.905333 -4.9883 
-0.805146 0.902772 -4.97948 
-1.6627 0.409613 -4.94515 
-1.84998 0.404868 -4.95048 
-0.644409 0.285425 -4.7761 
-0.0768153 -0.353907 -4.46364 
1.37693 -0.38285 -4.46765 
-1.05507 0.345892 -4.56587 
-1.99263 -0.0249045 -4.91626 
0.840225 0.190556 -4.76507 
0.593559 -0.774412 -3.43248 
-0.709519 -0.102712 -4.76148 
-2.09108 -0.583091 -4.88968 
-2.02257 -0.686066 -4.88035 
0.554812 1.30256 -4.63209 
-0.161055 -0.396479 -4.46061 
0.310794 -0.0556188 -4.59463 
0.342399 0.589927 -4.62697 
2.04015 0.736925 -4.9717 
-1.46199 1.11727 -4.9869 
-0.474113 0.0540685 -4.76203 
1.26585 1.30561 -5.01262 
2.13674 1.31026 -5.0115 
-1.9806 1.46984 -5.01403 
1.27927 1.45133 -5.0069 
-0.960043 -0.337559 -4.45288 
-0.969932 0.709997 -4.96295 
-2.00937 -0.835831 -4.87654 
-2.01324 1.37836 -4.99619 
-1.06249 0.147038 -4.66288 
-1.55056 1.59942 -5.00924 
-0.728136 1.6979 -5.01949 
-0.494094 0.684084 -4.77497 
0.41617 -0.0588269 -4.65569 
1.19021 -0.318106 -4.66049 
-0.381191 0.967213 -4.78166 
1.16065 1.51113 -5.01779 
-0.292815 1.10639 -4.59232 
-0.530133 0.105673 -4.69395 
1.4194 0.568281 -4.95577 
1.2963 1.3386 -5.01041 
1.805 -0.681811 -4.89946 
-1.00363 0.450987 -4.94673 
-0.160487 -0.385436 -4.46859 
1.73122 0.752193 -4.98363 
1.48827 1.47117 -4.98908 
-1.05452 -0.108639 -4.65521 
-0.807426 1.60707 -5.00629 
-0.780759 1.5978 -5.01141 
-1.88154 -0.563475 -4.89049 
2.3482 -0.469342 -4.91235 
0.685109 0.365117 -4.78801 
-1.51108 -0.698254 -4.89688 
1.8798 0.0608375 -4.95231 
0.0422246 -0.785642 -3.42921 
-0.432753 -0.443207 -4.46064 
-2.01987 0.204021 -4.94472 
-1.97006 0.35955 -4.95366 
2.2673 -1.00782 -4.87918 
-2.25021 -0.882468 -4.87068 
2.08917 0.581863 -4.95813 
1.70997 0.0183206 -4.93841 
2.57 0.471188 -4.96406 
0.467475 1.10804 -4.59902 
-1.79306 -0.0949772 -4.91551 
-0.967131 1.66159 -5.00639 
0.53216 -0.775714 -3.43716 
-0.0134116 0.689686 -4.6833 
2.35949 0.944274 -5.1669 
2.32003 -0.319759 -4.90917 
-1.26367 1.1086 -4.98842 
2.06373 0.912178 -4.98258 
1.83656 -0.271087 -4.93065 
2.31311 1.16424 -5.01167 
-1.46371 0.919068 -4.9774 
-1.04677 -0.0566053 -4.66996 
-1.75451 -0.261425 -4.90835 
-1.03014 0.30855 -4.57789 
-1.33352 1.12061 -4.98442 
-1.94288 1.67382 -5.00924 
0.679778 0.0492677 -4.77265 
1.29638 0.907183 -4.98795 
-1.10979 1.032 -4.97965 
0.619232 -0.380545 -4.45041 
-1.33474 1.38924 -4.99686 
1.27291 1.37343 -5.01959 
0.175583 -0.37256 -4.46475 
1.67559 0.288408 -4.94918 
0.907901 0.950786 -4.70478 
-1.86419 0.722176 -4.96259 
1.95232 -0.0105227 -4.9135 
-1.62715 1.12421 -4.99435 
-0.444884 -1.02549 -3.36889 
-1.75099 0.0425336 -4.92756 
0.142302 -1.07215 -3.17285 
-0.474599 0.100083 -4.72604 
-1.98537 1.47373 -5.01707 
-0.541657 -0.40614 -4.46361 
-1.43776 1.53155 -5.00344 
-1.3633 1.63248 -5.00929 
0.782037 -0.800001 -3.53597 
-1.67627 -0.851905 -4.86725 
1.81878 1.57387 -5.01804 
-1.6198 -0.891855 -4.87455 
-0.0159776 -0.0530315 -4.58056 
-1.42049 -0.3178 -4.91695 
-0.519939 0.0953497 -4.69149 
0.341112 -0.0441774 -4.63293 
-2.18424 -0.874076 -4.86363 
-1.73237 1.38451 -5.00954 
-2.16408 -0.870189 -4.87329 
-0.478537 0.322514 -4.77687 
-1.99449 -0.282384 -4.89931 
-0.922226 1.49489 -5.00719 
-0.870923 -0.418994 -4.45656 
-1.66187 1.38718 -5.00012 
-0.535506 -0.40085 -4.45717 
0.304601 -0.458858 -4.45996 
-1.52449 0.636763 -4.96013 
1.66172 0.0228781 -4.91457 
0.780797 0.133134 -4.76687 
-0.517633 0.629125 -4.76943 
-2.21594 0.0585567 -4.92293 
-1.21139 0.908976 -4.97731 
-1.88853 -0.46305 -4.90035 
1.7917 -1.0585 -4.81815 
0.167818 1.29283 -4.62574 
-1.12729 -0.833571 -4.42747 
-0.979776 1.66407 -5.01581 
-1.05605 -0.106484 -4.65688 
-1.85806 -0.225156 -4.91329 
-1.47955 1.52466 -5.00111 
1.75613 -0.364403 -4.89647 
-1.96888 0.248518 -4.95257 
2.24186 -0.608028 -4.89194 
-1.77106 -0.47788 -4.8906 
-1.45657 0.319278 -4.93117 
1.58159 0.737745 -4.97777 
-1.86355 -0.641347 -4.89366 
-0.443387 -0.92988 -3.37662 
-0.151033 -0.831451 -3.42879 
1.8937 0.588806 -4.97356 
-0.957066 1.4756 -5.00048 
2.03518 -0.268765 -4.9338 
2.26422 1.09831 -4.98456 
-0.943309 0.681556 -4.96191 
2.48532 1.40092 -5.01828 
1.25714 0.89979 -4.98715 
-1.07725 -0.377514 -4.46816 
-2.18393 0.0593665 -4.92555 
-1.46906 0.290233 -4.93711 
1.41602 -0.356889 -4.46449 
0.42603 1.03373 -4.61791 
1.08189 0.260186 -4.76253 
-0.031619 -0.643637 -3.43829 
-0.483885 -0.311663 -4.65969 
0.500995 0.277641 -4.65774 
-1.1463 0.665836 -4.95681 
1.94097 -0.842295 -4.89229 
1.07863 -0.0201367 -4.7211 
-0.753558 0.235796 -4.7552 
2.25653 -0.190202 -4.91527 
-0.111594 -0.393102 -4.46544 
-1.43316 1.24481 -4.99127 
-1.54965 0.351324 -4.94643 
2.2884 -0.465161 -4.90695 
0.426885 1.03938 -4.6245 
-0.871824 -0.417427 -4.46486 
-0.151954 -0.83137 -3.43014 
-1.38522 1.12547 -4.98301 
1.83502 0.90876 -4.98482 
-1.89436 0.919299 -4.97379 
-2.13532 -0.844717 -4.87381 
-0.160986 1.08946 -4.58127 
-0.0382966 -0.442043 -4.45609 
-0.430059 -0.543267 -3.41176 
-1.13709 0.922045 -4.97509 
0.854574 0.131682 -4.74198 
2.2399 0.769717 -4.94094 
2.28786 1.45741 -5.00654 
-0.160298 1.08599 -4.58337 
-1.2289 1.40283 -5.00328 
2.01662 -0.180206 -4.92508 
-1.66049 -0.78937 -4.87748 
-1.32354 0.205732 -4.93228 
-0.774388 -0.507419 -3.82835 
1.78075 0.297409 -4.94913 
1.83632 1.25748 -4.99249 
0.0373478 -0.381279 -4.46663 
-0.412827 -0.461505 -4.42288 
-0.965848 1.68839 -5.01775 
1.19792 0.900671 -4.99129 
-1.6476 0.847793 -4.97126 
-1.12983 0.708716 -4.97109 
-0.344289 0.210711 -4.77585 
-0.0898464 -0.217059 -4.58164 
-1.14704 0.667059 -4.95866 
-1.41844 1.23644 -4.99605 
0.0875066 -0.771412 -3.4315 
-1.81642 0.0157343 -4.92799 
1.68378 1.28473 -5.00026 
2.54358 -0.172678 -4.92827 
0.748278 -0.361091 -4.47666 
-1.31125 1.65273 -5.0044 
1.94534 0.378404 -4.95284 
-1.78087 -0.211637 -4.90503 
0.557482 0.406244 -4.67197 
-1.72973 0.545133 -4.9588 
0.314174 0.328957 -4.65777 
2.16678 -0.808479 -4.88811 
-1.3413 0.0320705 -4.93524 
-1.47654 -0.850045 -4.87343 
-1.33588 0.772184 -4.97232 
-1.94435 0.746948 -4.9584 
0.88306 0.192877 -4.76368 
-0.886586 1.75205 -5.02012 
-1.88498 0.0240934 -4.92529 
-0.0567709 1.30754 -4.06088 
-1.8766 -0.853829 -4.87039 
-1.25496 0.920787 -4.97762 
-1.60701 0.0385582 -4.92261 
-1.73769 1.61863 -5.00176 
2.05534 -0.265605 -4.92572 
2.41193 -0.682497 -4.90338 
-1.86342 -0.561402 -4.8877 
0.574502 0.0951721 -4.66213 
2.32315 -0.167516 -4.91413 
1.13481 0.750713 -4.98329 
1.18938 -0.425402 -4.46311 
1.42893 0.902329 -4.98424 
-0.740934 0.270913 -4.75429 
1.41024 1.18826 -4.97076 
0.519029 -0.0698177 -4.65792 
-1.60662 1.21104 -4.99487 
-1.42285 0.485271 -4.95303 
-1.70031 1.40485 -5.00305 
-1.71986 0.171602 -4.9412 
0.683778 0.364846 -4.77474 
0.861252 0.186899 -4.7681 
-0.402144 1.1576 -4.70216 
2.57511 -0.687263 -4.89878 
-2.00841 1.16545 -4.97197 
-0.0631124 -0.60322 -4.38851 
1.4548 -0.216745 -4.64406 
1.85037 0.1708 -4.95271 
1.42797 -0.307847 -4.56443 
-0.0637103 -0.554755 -4.39161 
-1.57986 1.49582 -4.99621 
-1.80562 -0.870606 -4.8789 
0.912709 0.708777 -4.70385 
1.28347 1.36319 -5.01073 
-1.65995 -0.208159 -4.89986 
-1.68477 -0.326249 -4.91134 
2.5826 -0.691833 -4.90339 
-1.56403 0.202254 -4.95106 
-0.772603 -0.538397 -3.75674 
-0.226727 0.121351 -4.65426 
1.85202 0.211028 -4.91922 
-1.47765 -0.0774173 -4.92836 
2.48565 0.404648 -4.98066 
-1.62373 -0.892845 -4.88349 
2.07814 -0.138336 -4.92576 
-1.80357 -1.03152 -4.78281 
-1.47636 -0.36135 -4.90507 
2.06518 -1.15037 -4.78099 
2.14712 -0.119007 -4.92384 
0.205351 0.273903 -4.58431 
-2.19967 -1.03023 -4.77133 
2.17238 -0.463278 -4.91651 
-0.120953 1.12088 -4.57905 
-1.64713 1.24825 -4.97989 
-1.01 0.41393 -4.58169 
1.99881 0.38619 -4.96258 
1.48809 -1.08256 -4.36386 
1.4497 0.579109 -4.96792 
0.129356 -0.383253 -4.46549 
0.139012 0.0302574 -4.406 
-0.363158 -0.654478 -3.43559 
-1.67507 -0.274927 -4.90664 
1.08909 0.582522 -4.7188 
-1.71049 0.500261 -4.95052 
-1.60698 1.20779 -4.99046 
1.57807 0.735017 -4.97387 
-0.0396323 0.6979 -4.68273 
-1.57819 -0.88341 -4.8762 
1.79659 0.446344 -4.95975 
-3.01474 -0.50553 -5.92848 
1.83971 -0.914954 -4.88748 
0.00659074 1.46087 -4.52763 
-0.154407 1.08623 -4.58997 
-0.0268281 -0.609097 -4.38328 
-0.648925 0.587075 -4.76917 
0.296049 1.29656 -4.6299 
0.140599 -0.766241 -3.43077 
-1.01916 1.37881 -4.99995 
0.149263 0.246758 -4.59283 
-0.181895 -0.149947 -4.66119 
-1.71396 0.190974 -4.9467 
0.225854 -0.00982051 -4.51761 
0.988142 0.285315 -4.79033 
-0.553538 -0.465975 -4.45825 
2.11544 -0.912438 -4.88992 
-1.72636 1.07617 -4.97662 
1.22151 1.31553 -5.00433 
0.152464 -0.387048 -4.46592 
1.86296 0.0120714 -4.93089 
-1.29141 1.18457 -4.99257 
-1.85715 0.998872 -4.98131 
-0.828636 1.49939 -5.00801 
-1.33459 -0.237105 -4.91526 
-0.71637 0.488366 -4.76387 
0.189278 1.3195 -4.05416 
2.09141 0.45524 -4.96925 
-0.421137 1.4761 -4.5977 
-1.05025 0.386239 -4.58226 
-0.8731 1.04403 -4.98319 
-1.4407 1.07676 -4.98103 
-1.64909 -0.855183 -4.87418 
0.82581 0.651285 -4.77613 
2.124 0.551392 -4.97329 
-1.40141 0.732964 -4.97604 
-1.82856 1.02832 -4.98799 
-0.227691 0.123855 -4.65693 
2.12343 0.569841 -4.97184 
-1.15996 1.25401 -4.99033 
-1.1363 1.40033 -5.00088 
-1.89422 -0.590413 -4.89554 
1.71737 0.0103612 -4.93523 
-1.70906 -0.87983 -4.87534 
-0.497057 -0.419062 -4.46206 
1.38316 -1.0696 -3.09831 
-2.13525 -0.0709733 -4.91183 
0.529751 0.10848 -4.66572 
-1.4247 -0.244614 -4.91573 
1.93851 -0.576056 -4.91019 
2.06568 0.770749 -4.97329 
-0.00715566 1.12826 -4.04231 
-1.06831 -0.445874 -4.46828 
0.503242 0.170794 -4.66088 
-1.27424 1.57856 -5.02525 
-0.8961 1.03981 -4.98177 
-1.80389 -0.558164 -4.89171 
1.62357 0.929622 -4.98783 
2.16481 0.929095 -4.97902 
0.892139 0.937477 -4.71976 
-0.843412 1.48806 -5.00328 
-1.64963 0.456232 -4.9587 
0.12501 -0.553645 -4.39033 
0.445616 1.13387 -4.5869 
-1.49566 1.54329 -5.01139 
1.38234 1.51471 -5.02245 
1.66427 -0.004285 -4.93328 
0.636329 -0.957073 -3.37032 
2.15906 -0.454396 -4.92105 
-0.81524 -0.47705 -4.45902 
0.967343 0.758691 -4.71587 
-0.103117 0.388321 -4.67118 
-1.77732 -0.440448 -4.89171 
-1.72166 -0.892101 -4.87755 
0.453377 0.255284 -4.66552 
1.51277 0.754648 -4.97109 
1.13192 0.865987 -4.9775 
-1.35645 1.29964 -5.00233 
2.55703 1.40539 -5.01246 
-2.0619 -0.246042 -4.90669 
2.44654 -0.999078 -4.88273 
-0.916449 1.69131 -5.01647 
1.53329 1.46603 -5.01943 
-0.0315413 -0.0720872 -4.58902 
0.809716 -0.454587 -4.46976 
1.4693 1.22141 -4.99589 
-1.50683 -0.0244772 -4.92935 
1.4231 0.746038 -4.98414 
1.81415 -0.678603 -4.90303 
2.44722 0.557872 -4.9629 
-0.0891437 0.292336 -4.6662 
-2.13992 -1.0651 -4.77131 
-2.10055 0.0258918 -4.9355 
1.50866 0.590407 -4.96917 
-0.968391 0.575658 -4.95863 
-0.588215 0.69392 -4.71832 
-2.00701 1.01116 -4.97856 
1.94656 0.790185 -4.97578 
-1.01916 0.847488 -4.97489 
1.54091 0.58696 -4.96717 
1.19631 0.100613 -4.75647 
0.270977 -0.0714365 -4.56806 
0.0211166 -0.0756337 -4.56673 
2.5737 -0.274313 -4.92417 
2.17325 -0.428605 -4.9118 
1.86371 0.88752 -4.98942 
1.66898 1.25804 -5.00919 
-1.70338 -0.045777 -4.92352 
-0.442303 0.331286 -4.78532 
1.38675 -0.0734333 -4.69684 
2.46775 0.881104 -4.97692 
1.29354 -0.559943 -4.38929 
1.31439 0.0303596 -4.74898 
-1.5315 -0.886302 -4.88318 
-0.963854 -0.0726498 -4.67285 
2.53914 -0.157882 -4.92642 
-0.0551783 1.00398 -4.69376 
-0.581298 0.945966 -4.6969 
0.331866 0.939568 -4.67996 
-1.68012 -0.918277 -4.86459 
-0.399141 -0.114927 -4.76208 
0.61445 -0.655086 -3.43907 
-1.79564 0.371894 -4.94162 
-1.50552 1.22119 -4.99807 
-1.8942 0.955884 -4.97429 
0.168199 0.186123 -4.66922 
0.0088489 -0.410759 -4.46404 
-2.12794 -0.903273 -4.87412 
-1.72362 0.0219177 -4.92349 
0.138094 -0.845562 -3.42547 
2.0169 -1.01523 -4.87178 
-1.57159 -0.530032 -4.90072 
1.70928 -0.362476 -4.91734 
-0.843062 1.3788 -4.9992 
-0.485784 0.721471 -4.78099 
-1.49141 -0.177472 -4.91526 
1.80545 0.206398 -4.9618 
-0.789253 -0.316825 -4.4597 
-1.58947 -0.206105 -4.92087 
1.13981 0.763768 -4.97774 
0.558478 1.09463 -4.59827 
-1.79189 1.49216 -4.98305 
2.28218 -0.504891 -4.91367 
1.66631 1.20573 -4.99738 
-0.531964 0.141773 -4.70417 
-0.269371 1.19427 -4.60229 
2.34479 1.23208 -5.01549 
-1.6195 -0.148802 -4.91699 
0.503162 0.178199 -4.66275 
-1.91115 0.935335 -4.9752 
-1.65341 -0.436075 -4.9053 
0.352896 -0.551335 -4.39225 
1.01479 -0.387153 -4.46868 
1.92831 0.411867 -4.95906 
-1.56793 -0.530762 -4.89564 
-1.80878 0.0395766 -4.92281 
2.18921 -0.714535 -4.89228 
-0.840491 1.57901 -5.00802 
2.26589 0.365711 -4.94546 
0.364158 -0.92379 -3.40206 
0.0451514 1.56778 -4.60174 
-1.19955 -0.640043 -4.46123 
-0.913464 1.25404 -4.9871 
1.54677 1.22101 -5.00416 
-2.14669 0.600481 -4.95056 
2.12558 0.320404 -4.953 
1.6587 1.26151 -4.99316 
-1.72734 1.33483 -4.99525 
-0.78038 1.62319 -5.01218 
1.17232 1.55067 -5.01319 
-0.479096 -0.442353 -4.46244 
1.9889 -0.282308 -4.93066 
-1.20028 1.66659 -5.0185 
-1.95311 1.55025 -5.00183 
-1.47077 -0.375297 -4.90394 
-0.694712 -0.147479 -4.7629 
-1.83569 -0.430884 -4.91224 
2.22129 -0.712314 -4.8907 
-0.21464 -0.659886 -3.43365 
1.38379 0.300093 -4.56986 
1.51532 -0.970212 -4.41285 
1.3768 0.903504 -4.98987 
-1.48136 -0.568109 -4.89435 
-1.83737 -0.25842 -4.91835 
2.35521 1.45405 -5.02055 
2.37789 0.391405 -4.9639 
0.62842 -0.750033 -3.43069 
-1.77401 -0.920701 -4.86959 
0.483897 0.39886 -4.66678 
0.476962 0.106829 -4.65919 
2.19582 0.745103 -4.97343 
1.62751 1.2224 -5.00523 
-0.656614 1.3975 -4.99827 
-2.05329 -1.15051 -4.7662 
-1.48453 -0.184914 -4.9103 
-0.42139 -0.955815 -3.37205 
-0.365253 0.345262 -4.76766 
2.57681 -0.171277 -4.92607 
-1.63349 -0.65828 -4.88154 
1.90156 -0.721695 -4.9056 
1.99197 -0.137783 -4.92835 
1.97155 0.330262 -4.96627 
1.94078 -1.07754 -4.80428 
-0.418817 1.14242 -4.69857 
2.25338 -0.572679 -4.90062 
1.67372 0.314554 -4.94925 
-0.820781 0.893936 -4.97841 
-1.50838 -0.28279 -4.90121 
-1.98361 0.387859 -4.95115 
-0.77982 1.47962 -5.00664 
0.815584 0.595326 -4.7948 
-0.296623 -0.772342 -3.42933 
-1.31823 -0.206954 -4.9116 
-1.05048 1.05319 -4.98349 
-0.959615 1.49862 -5.00832 
2.34907 0.74727 -4.975 
0.162026 -0.534869 -4.3929 
-0.807309 -0.443558 -4.45748 
-1.55041 -0.611523 -4.88776 
-1.50702 -0.279982 -4.90176 
2.25259 -1.01677 -4.87625 
-2.00753 -0.677123 -4.88733 
1.24638 1.21609 -4.99053 
1.86119 -0.736718 -4.90288 
0.742857 1.09937 -4.69557 
-1.38415 1.37257 -4.99712 
-1.81576 -0.633145 -4.90004 
0.630105 -0.419216 -4.46554 
-1.67161 -0.641692 -4.88274 
-0.890767 1.2741 -4.99279 
-2.29327 -1.00761 -4.78265 
2.06979 1.10649 -4.99602 
-0.440469 0.286476 -4.77865 
2.1563 -1.01171 -4.87918 
0.232464 0.3751 -4.60397 
1.69023 1.29442 -5.00457 
-0.417476 1.14521 -4.69924 
1.2608 -0.916764 -4.42583 
-0.460821 -0.525532 -3.61363 
1.56039 1.22409 -5.02073 
0.687611 -0.971049 -3.36994 
2.36335 1.26676 -5.01992 
-0.997468 0.588049 -4.95595 
0.1022 -0.833998 -3.42733 
-0.0833118 0.925327 -4.61509 
1.48269 1.18562 -4.97331 
2.14198 -0.445746 -4.9126 
-1.94576 1.07532 -4.97345 
-1.37463 -0.0880981 -4.92669 
-0.503673 1.52073 -4.59018 
-1.08888 1.26123 -4.99032 
2.5003 1.4289 -5.01948 
2.39482 -0.739564 -4.89585 
2.47699 0.929187 -4.98243 
0.53127 0.331758 -4.67105 
-0.417085 0.833563 -4.80165 
2.40187 0.573928 -4.97442 
1.08888 0.236458 -4.76013 
-1.94087 -0.895044 -4.87302 
2.22941 0.574861 -4.97707 
-0.676745 1.74109 -5.02212 
1.03249 0.530672 -4.78297 
-0.704127 0.495546 -4.76977 
-1.64953 1.1048 -4.98775 
-0.796673 -0.338151 -4.47156 
-4.79362 2.06441 -8.69916 
1.89397 0.761588 -4.97739 
-1.07077 1.22963 -4.9921 
0.171007 0.0985533 -4.51632 
-1.49312 0.0220276 -4.93077 
-1.66092 -0.565649 -4.88744 
1.71533 -0.427889 -4.91201 
-2.02371 -0.942974 -4.87268 
-0.489296 0.18246 -4.75616 
-0.724961 0.37096 -4.76456 
2.30275 1.40447 -5.01867 
-1.36552 1.23074 -4.98975 
-1.54824 1.30053 -4.99643 
1.44175 -0.882096 -4.41464 
-1.99036 0.192609 -4.94126 
-0.994814 0.887634 -4.97526 
1.38653 1.23053 -5.00183 
2.27037 1.13235 -4.98895 
-1.87724 1.09994 -4.98136 
2.15269 -0.307265 -4.91886 
0.0364396 1.31403 -4.61937 
1.33217 -0.677228 -4.43527 
-0.875401 0.894233 -4.98665 
1.01417 1.49776 -5.01359 
0.431091 -0.45379 -4.45954 
-0.0151056 1.45417 -4.52478 
-0.73207 -0.350755 -4.47032 
-1.6592 -0.78852 -4.87499 
2.24151 0.479462 -4.96002 
2.05795 -0.296964 -4.92327 
-1.60909 0.893642 -4.98473 
-1.64681 1.17668 -4.98691 
2.21599 -0.717136 -4.88297 
2.12816 0.467951 -4.9678 
-0.896221 -0.368545 -4.47031 
1.26485 1.60337 -5.01491 
0.990863 0.288085 -4.78877 
-0.672798 -0.818955 -3.69656 
-1.55892 -0.299389 -4.90571 
1.39546 -0.150238 -4.65616 
0.319415 0.362215 -4.66361 
1.7439 -0.712201 -4.90282 
0.83522 0.0306069 -4.74685 
1.00225 1.48706 -5.01057 
0.0122988 -0.572668 -4.3896 
-1.62797 0.830479 -4.97015 
-0.540381 0.0844069 -4.70507 
-0.480727 -0.148052 -4.75913 
1.22096 1.29874 -5.00226 
-1.68051 -0.945938 -4.87136 
-0.252886 1.11416 -4.58349 
1.74852 0.588987 -4.96976 
2.2502 0.589163 -4.95641 
1.85411 -0.284508 -4.92539 
-1.73786 0.592418 -4.95299 
2.37316 -0.149673 -4.93634 
2.60781 1.46416 -5.00665 
-1.9182 -0.90678 -4.87214 
2.46215 0.915803 -4.97982 
2.52703 0.738935 -4.99083 
-1.09409 -0.308958 -4.55174 
-0.380808 -0.356713 -4.47606 
0.139354 1.56635 -4.59017 
2.0166 -0.152291 -4.92784 
-0.995619 1.40784 -4.99816 
2.11273 -0.91077 -4.88132 
-0.752134 1.53279 -5.0162 
-0.595053 -0.446694 -4.46622 
1.85017 -0.629547 -4.89863 
0.513032 -0.549307 -4.39211 
-1.04659 -0.00869649 -4.67191 
0.861869 1.29163 -5.01029 
-2.12212 -0.822641 -4.87504 
-1.32063 -0.228542 -4.91502 
1.78907 -0.705534 -4.89721 
2.17813 -0.0415942 -4.93827 
1.35142 -0.974004 -4.42306 
-1.26461 -0.0996508 -4.92557 
0.711206 -0.828139 -3.4389 
-1.44778 -0.944581 -4.87699 
-1.04653 -0.0653958 -4.66329 
2.00717 -0.745203 -4.91393 
-1.95021 1.59907 -4.99893 
1.24913 -0.788903 -4.43226 
1.70827 1.19958 -4.99501 
0.135807 -0.843529 -3.42506 
2.26417 -0.012693 -4.9391 
1.25836 1.45594 -5.01338 
2.31029 0.726564 -4.96099 
2.16214 -0.576516 -4.90381 
-2.12369 -0.824737 -4.87982 
1.93347 0.604125 -4.97092 
0.431495 -0.261966 -4.56212 
-1.72404 0.513752 -4.95102 
2.29602 0.258146 -4.95751 
-1.848 -0.0445663 -4.91859 
-2.14311 1.11775 -4.97607 
1.25901 -0.919103 -4.42782 
-1.67512 -0.778601 -4.87809 
-2.20717 -0.637599 -4.87847 
-0.327973 -0.375746 -4.46335 
1.45198 -0.362793 -4.46825 
1.47725 1.11148 -4.98987 
0.945822 1.31525 -5.00663 
-0.572129 -0.451802 -4.4607 
0.029115 1.57935 -4.59365 
-1.85151 1.28419 -4.99499 
-0.49719 0.169647 -4.73607 
1.28707 -0.461993 -4.46352 
0.424407 -0.444611 -4.46039 
2.23165 0.576275 -4.98176 
1.82403 -0.0408596 -4.92214 
2.04424 0.573375 -4.96495 
-0.168721 -0.655797 -3.43726 
0.432229 -0.382486 -4.4715 
-1.62563 1.43706 -5.00421 
1.31111 0.603853 -4.96629 
-2.19742 -0.56872 -4.89593 
0.206872 0.30446 -4.58542 
-2.13559 0.752533 -4.96435 
-1.32079 1.12695 -4.99059 
-0.185574 1.14439 -4.57471 
-1.64118 0.754028 -4.96551 
-1.66814 0.714536 -4.96361 
-0.896964 1.66526 -5.02235 
2.48133 -0.687842 -4.89705 
-1.44194 0.192628 -4.94663 
-1.58518 -0.258598 -4.91284 
-1.41529 1.27735 -4.99336 
-1.98457 0.902777 -4.97031 
2.12874 -0.455091 -4.91159 
-1.2979 0.529852 -4.96583 
1.8205 0.776884 -4.9795 
-1.34001 -0.180294 -4.91468 
0.974678 1.051 -4.66167 
-1.59973 0.215902 -4.94073 
-1.46218 0.0113897 -4.92786 
2.05037 1.52696 -5.02573 
1.10118 -0.452036 -4.46751 
2.40159 0.41664 -4.9567 
2.04696 1.52691 -5.02346 
-0.722893 0.313522 -4.76133 
0.166036 -0.738418 -3.4317 
2.111 -0.650466 -4.89453 
0.832596 0.629645 -4.77841 
-0.114243 -0.54447 -4.38854 
-0.188866 1.01005 -4.6888 
2.01362 -0.307428 -4.90841 
-0.260319 -0.156785 -4.65221 
1.5104 -0.490668 -4.46743 
1.8956 0.0361141 -4.93307 
1.80534 -0.634121 -4.899 
-1.70533 -0.0209947 -4.93086 
-0.178514 -0.558802 -4.39 
1.55656 0.917802 -4.98622 
-1.40329 1.10494 -4.98174 
1.51839 1.22478 -5.00261 
-2.15026 1.76921 -5.00403 
-0.976163 0.961149 -4.97773 
-0.938275 1.20256 -4.99274 
-1.94826 1.58789 -5.00253 
1.39808 0.264434 -4.62949 
-0.718299 0.355961 -4.76455 
1.42568 1.1373 -5.00095 
2.09051 -0.371945 -4.91659 
-0.0827962 -0.410711 -4.47134 
2.14627 0.909299 -4.98897 
-1.68449 0.584137 -4.95263 
-0.497144 -0.128984 -4.75992 
-1.97309 1.48718 -5.00133 
-2.29043 -1.00365 -4.78688 
2.11545 1.30337 -5.01268 
-2.24378 0.937753 -5.01594 
-0.722851 1.42549 -5.00058 
-1.70068 -0.0672357 -4.91576 
0.138484 -0.765097 -3.43276 
-1.47077 0.208626 -4.93765 
-1.65196 -0.299547 -4.90577 
1.10846 -0.344367 -4.4611 
-1.58782 -0.867204 -4.87956 
1.41576 1.56881 -5.01107 
-0.371594 -0.352863 -4.47028 
-0.348043 -0.954023 -3.36975 
1.3337 -0.0686118 -4.57628 
1.93962 -0.275727 -4.92205 
-0.992722 -0.367795 -4.46556 
-1.26873 0.735867 -4.96992 
1.1725 -0.401253 -4.46485 
2.37967 -1.00611 -4.87617 
-1.6676 -0.420386 -4.91278 
1.19303 1.5366 -5.00606 
-2.00974 -0.551856 -4.88459 
1.12434 -0.451725 -4.4592 
0.420581 1.46347 -4.53303 
-1.52874 1.40284 -5.00315 
-1.78735 -0.402978 -4.89726 
1.81223 -0.12767 -4.93451 
-2.05366 1.32371 -4.98188 
-2.19269 1.1603 -4.97828 
0.146802 0.372586 -4.69696 
0.512261 1.02642 -4.61535 
0.370725 -0.127743 -4.62239 
-0.033783 -0.507627 -4.45498 
-0.89193 1.27883 -4.99364 
-0.917147 1.06377 -4.98286 
2.31491 0.654148 -4.97468 
-1.75062 0.237152 -4.9365 
-1.86984 -0.705295 -4.89959 
0.6712 0.703944 -4.79484 
-1.11886 0.898057 -4.98622 
-1.58669 -0.200345 -4.93912 
-1.05303 0.527495 -4.95844 
1.37639 0.117332 -4.69727 
0.2978 1.46461 -4.53553 
0.418535 1.45069 -4.53323 
2.08604 0.186159 -4.95347 
1.67017 0.0092211 -4.92433 
0.672516 -0.959782 -3.36679 
-1.78766 1.48798 -4.99113 
2.37476 -0.1822 -4.9386 
-0.730318 1.57588 -5.00707 
-0.484457 0.483649 -4.75593 
2.2415 0.332863 -4.96637 
-1.46024 1.54601 -4.99827 
2.33813 0.188621 -4.94893 
-1.86819 -0.150895 -4.90999 
1.37142 0.905047 -4.99548 
2.54389 1.21535 -4.99824 
1.95784 -0.908109 -4.89028 
-2.03438 1.68658 -5.00554 
2.30654 1.10657 -4.99688 
-1.52602 -0.67549 -4.88949 
-2.02539 1.32007 -4.9899 
1.48544 1.11482 -5.00144 
-2.11722 0.00877756 -4.92471 
-1.62939 1.18486 -4.9838 
1.64816 0.219843 -4.95476 
-0.223752 1.09523 -4.57473 
-1.73744 0.0347076 -4.94751 
2.23862 -1.00721 -4.87713 
0.110645 -0.535967 -4.39046 
-1.46645 -0.86314 -4.87933 
1.90123 -0.500326 -4.88794 
2.18344 -0.162339 -4.93996 
1.5032 -0.531106 -4.46899 
0.361557 -0.833636 -3.43133 
2.30848 0.322538 -4.95627 
-1.73309 0.0699259 -4.92358 
2.5556 0.452102 -4.9602 
-2.03167 0.193315 -4.94379 
2.20933 -0.786674 -4.88916 
1.16207 1.25207 -4.99545 
0.824852 0.170112 -4.76067 
2.35031 0.391243 -4.95801 
-1.87365 -0.423933 -4.91059 
0.569003 -0.563572 -4.39184 
-1.8276 -0.27552 -4.92058 
1.26293 0.0739005 -4.75109 
-0.477433 0.326715 -4.78127 
0.174484 1.45536 -4.52681 
1.28334 -0.809251 -4.43337 
-2.00074 1.12939 -4.97258 
-0.753062 0.220088 -4.75672 
-1.23998 -0.99701 -4.37532 
2.42003 0.688309 -4.96891 
-1.72442 0.0358581 -4.92697 
-0.397685 -0.119564 -4.7598 
0.833395 0.752916 -4.77752 
-1.53735 1.0927 -4.99729 
1.98442 1.01424 -4.98556 
-1.76624 -0.0606427 -4.91841 
1.54368 1.29288 -5.00997 
-0.123238 -0.585151 -4.38552 
-1.00382 0.861364 -4.97663 
-0.00980914 -0.358049 -4.46821 
-1.75147 0.612082 -4.95623 
0.25983 0.454572 -4.68512 
2.56327 -0.752544 -4.90935 
0.572554 1.4531 -4.53398 
0.114741 -0.915436 -2.82395 
-1.93397 0.731188 -4.9612 
-2.06809 -0.83472 -4.87706 
1.31093 -0.388784 -4.46297 
-1.67246 0.0197266 -4.93058 
-2.04147 0.0601908 -4.92138 
-1.86586 -0.150627 -4.90536 
-1.79041 -0.521953 -4.88589 
0.673243 -0.914668 -3.40895 
0.18316 -0.0521154 -4.5592 
2.56632 -0.721365 -4.8905 
-1.60086 -0.0986883 -4.92651 
-1.78878 0.390681 -4.95466 
0.0356345 -0.772284 -3.43191 
1.1016 1.57931 -5.01972 
0.372329 1.4627 -4.53554 
2.13314 -1.02532 -4.86898 
-1.748 1.33476 -4.99942 
-0.123451 0.123248 -4.65357 
-0.875155 0.947116 -4.97606 
0.33989 0.881993 -4.70887 
-0.346753 0.0710488 -4.76829 
-1.64834 1.42139 -4.99274 
0.861661 -0.375945 -4.46828 
0.614573 -0.717295 -3.43788 
-0.036265 -0.144611 -4.62095 
0.541018 1.10615 -4.60202 
-1.8382 -0.0935863 -4.91594 
-1.4998 -0.258797 -4.92019 
-1.54442 1.5085 -5.00898 
1.60301 0.941812 -4.99149 
-1.73523 1.53097 -5.00216 
0.408012 -1.0563 -3.36866 
-1.06617 0.955645 -4.98108 
0.552054 1.30854 -4.64532 
2.3958 0.742298 -4.96664 
1.23509 1.48705 -5.01303 
-0.878069 1.475 -5.00628 
-1.83789 -0.856604 -4.87548 
-0.715942 0.452408 -4.76767 
-0.913017 1.28161 -4.99306 
1.62829 1.01734 -4.98592 
0.780262 0.270273 -4.78404 
-0.37904 0.707828 -4.76443 
-1.51705 0.91942 -4.9772 
-1.43818 -0.184622 -4.91659 
1.07092 0.360813 -4.76448 
2.50365 -0.476012 -4.89926 
1.27892 -0.457845 -4.46258 
1.89739 1.5223 -5.02394 
-1.7914 -0.0251075 -4.91485 
-0.205901 1.10055 -4.58997 
2.12213 0.191533 -4.95071 
-0.381932 -0.732357 -3.4314 
-1.59835 -0.299572 -4.90318 
-0.154055 -0.513052 -4.43565 
-2.22614 -0.694873 -4.8737 
0.192814 -0.0644 -4.56269 
2.32657 1.39666 -5.01579 
0.452123 0.12298 -4.65764 
0.919196 0.172125 -4.76998 
0.211407 1.29441 -4.61815 
-1.71376 -0.2529 -4.9209 
-1.83088 -0.660447 -4.8862 
2.08236 0.332143 -4.95752 
-1.71463 -0.716687 -4.87905 
-1.78898 1.6539 -5.01828 
-1.98663 0.387734 -4.95017 
1.8022 0.430611 -4.96299 
-1.42135 -0.107719 -4.91744 
0.28697 0.32914 -4.656 
1.66491 0.406304 -4.9562 
-1.07676 -0.106205 -4.66384 
0.749403 0.828576 -4.80908 
-0.714123 1.72297 -5.01728 
-1.2721 1.53696 -5.01464 
0.713676 -0.503553 -3.40471 
1.40286 0.140051 -4.67172 
1.72283 -0.0199488 -4.93237 
-0.662589 1.49576 -5.00229 
1.84093 0.791158 -4.97956 
1.00582 -0.456621 -4.46673 
-0.0991907 -0.778244 -3.44023 
2.30984 0.225631 -4.96323 
2.41531 1.27357 -5.00649 
-1.95709 0.944234 -4.97288 
1.15699 0.779563 -4.96901 
-1.58997 0.0191207 -4.92973 
0.504098 0.24666 -4.66786 
-1.74258 -0.538361 -4.91345 
1.32935 0.0768657 -4.73881 
-0.91506 -0.237103 -4.6142 
0.63097 -0.772817 -3.43093 
0.000221418 -0.354102 -4.46697 
-0.0927151 -0.617861 -4.39025 
0.905492 0.394232 -4.78823 
-1.34032 0.799112 -4.97867 
2.11886 0.518826 -4.96976 
-2.21426 1.30134 -4.98386 
2.38646 -0.0746283 -4.92604 
-0.92563 1.47695 -5.00785 
0.230789 -0.972208 -3.37274 
2.41859 0.956266 -4.97679 
-0.825735 1.61055 -5.00748 
-0.398735 -0.965565 -3.36925 
2.30677 0.212594 -4.94502 
0.843112 0.902566 -4.77105 
1.15014 1.29796 -5.00657 
-0.115349 0.503948 -4.64458 
-0.480824 -0.391052 -4.46442 
0.162127 0.871245 -4.69147 
2.00295 -0.346606 -4.92528 
1.26871 -0.348396 -4.48877 
2.18975 1.22592 -5.01941 
-1.46932 1.30656 -4.99113 
2.55471 1.10164 -4.99719 
2.32831 -0.753027 -4.8949 
-0.440552 -0.375806 -4.46785 
0.708315 -0.105999 -4.76168 
-0.519942 0.108953 -4.68923 
-1.98037 0.721995 -4.95294 
-0.374184 -0.97006 -3.37443 
-2.21687 -0.945516 -4.86482 
-1.88218 0.00293549 -4.91895 
-1.50917 -0.90868 -4.87083 
2.22183 0.851807 -4.97383 
-0.0498691 1.56398 -4.58974 
-1.01004 0.983607 -4.97727 
-2.07983 0.0673805 -4.9249 
-1.55457 0.786923 -4.96329 
-0.97537 1.40392 -5.00215 
-0.595795 -0.361423 -4.46186 
0.546923 1.45958 -4.52831 
-1.59852 1.68218 -5.02148 
2.14276 -1.01888 -4.88248 
1.22847 0.090141 -4.74973 
-0.156788 0.86156 -3.53021 
-0.179074 1.01849 -4.60732 
-1.62997 1.25795 -4.99437 
1.80428 -0.464403 -4.91186 
-0.869416 1.64158 -5.00831 
-1.4112 1.1074 -4.98695 
-1.66962 0.374004 -4.94351 
0.530736 0.0335652 -4.66003 
0.870399 0.651451 -4.75948 
-1.04031 0.939367 -4.97036 
-0.705728 1.46011 -5.01042 
-1.21596 0.55763 -4.95217 
1.94369 -0.518141 -4.90531 
1.80055 0.475408 -4.96457 
0.744606 1.07382 -4.68642 
1.98794 -0.786234 -4.89836 
-0.484578 0.762387 -4.78095 
1.9688 0.995393 -4.97965 
0.543169 0.392354 -4.67769 
-1.34028 -0.0937261 -4.9265 
-1.70408 1.79054 -5.01939 
-1.767 1.70743 -5.01747 
-0.482212 -0.414263 -4.4643 
2.01341 0.114979 -4.9442 
-2.20381 -0.152263 -4.91275 
-1.0145 0.265536 -4.59979 
1.62473 0.0142088 -4.93594 
-0.767396 -0.336462 -4.47088 
-1.7373 0.262803 -4.94311 
1.4325 1.23575 -5.00008 
2.13148 0.535589 -4.9721 
-0.754411 -0.440489 -4.46149 
1.38883 0.34366 -4.56423 
1.05934 0.499237 -4.76748 
0.893861 0.0804886 -4.71759 
2.57034 -0.689623 -4.90594 
1.67108 1.11615 -5.00257 
1.09275 1.38283 -5.00045 
-1.82836 0.206007 -4.93031 
-0.135569 1.45348 -4.52272 
1.94575 -0.125702 -4.92235 
-0.0779179 0.125421 -4.65785 
0.97312 1.4646 -5.01132 
1.98752 -0.786115 -4.89767 
-1.62958 0.903963 -4.97719 
-1.03899 0.419863 -4.57928 
-1.69957 0.566711 -4.96211 
-2.13381 -0.0864447 -4.90796 
0.787538 1.44703 -4.61612 
0.71331 0.723516 -4.76883 
-1.99104 1.49376 -4.99291 
-0.741513 1.68202 -5.02136 
-1.43464 1.2217 -4.98491 
-1.62042 -0.596981 -4.89466 
-0.62792 0.601034 -4.76873 
-1.65066 1.30155 -4.98933 
0.139275 0.555902 -4.68477 
1.93848 -0.714164 -4.90551 
-1.59641 1.53246 -5.00102 
-1.87229 0.201986 -4.93208 
1.43581 -0.533494 -4.45639 
-1.7959 -0.936813 -4.8533 
-1.51547 -0.199312 -4.90763 
0.234839 -1.06961 -3.36455 
2.03167 -0.590635 -4.90199 
-1.98329 0.0518299 -4.92432 
-1.3889 1.54496 -5.00127 
1.62055 0.0683813 -4.94915 
-0.938103 1.20096 -4.99151 
2.60346 1.45542 -5.00504 
-2.24005 0.0860086 -4.91913 
1.31736 0.652056 -4.96973 
1.27485 1.50094 -5.02279 
2.3542 -0.162525 -4.93495 
-0.112377 -0.416145 -4.46398 
-1.53375 1.11383 -4.99758 
-1.24791 1.09859 -4.99215 
-1.91382 1.60584 -5.00284 
-1.61712 1.2387 -4.98864 
-1.61453 -0.0987568 -4.9198 
1.27248 1.35124 -5.01562 
0.0982409 1.55959 -4.59343 
1.80755 -0.0363415 -4.93371 
0.251991 1.29509 -4.62508 
1.84378 0.576514 -4.97061 
-0.918034 -0.383118 -4.46899 
-0.921202 1.21631 -4.98954 
-0.369071 0.138502 -4.77367 
-1.27491 1.48462 -5.01636 
-0.0380976 -0.363484 -4.4683 
-0.0607867 -0.0739865 -4.60651 
1.76455 -0.20499 -4.92389 
1.36195 1.50622 -5.01993 
-1.26251 1.22077 -4.98893 
-1.79094 -0.458414 -4.88138 
1.73502 0.122104 -4.94783 
1.19029 1.53367 -5.00697 
2.31524 1.21929 -5.00152 
1.68959 1.50225 -5.02638 
0.557917 0.635553 -4.66303 
2.43579 0.943379 -4.97048 
1.6899 1.2303 -5.00727 
-1.89424 0.0329123 -4.92004 
2.51974 0.929711 -4.97995 
-0.887187 0.979989 -4.97557 
1.38605 -0.982577 -4.40396 
1.40415 0.580373 -4.96859 
-0.763374 0.925306 -4.97517 
-0.00375281 -0.504416 -4.45872 
-2.09745 -0.0854423 -4.91605 
-1.69509 -0.242762 -4.90771 
-0.796595 0.892022 -4.97916 
1.07109 -0.332813 -4.4663 
0.494568 1.45802 -4.5473 
-0.968906 -0.446096 -4.46283 
-0.257684 0.140089 -4.66057 
0.254298 -0.444 -4.4672 
1.2493 1.60206 -5.00767 
2.28268 -0.545365 -4.90194 
-2.18824 0.21253 -4.9298 
-1.88835 -0.238966 -4.91398 
-0.536405 0.649599 -4.75554 
0.417694 1.45176 -4.53808 
1.91226 -0.132256 -4.93273 
-0.499944 -0.772453 -3.51641 
-0.742311 1.47475 -5.01044 
0.649169 -0.250737 -4.605 
1.36127 -0.129719 -4.64969 
1.92092 -0.902187 -4.8904 
1.09134 0.463854 -4.75228 
0.499235 0.153231 -4.66111 
2.59083 -0.889175 -4.88995 
2.47583 1.16094 -5.00356 
0.60273 0.643702 -4.6818 
1.84768 0.103618 -4.95298 
-1.6526 0.20301 -4.94065 
2.33383 0.344177 -4.94607 
-1.78401 -0.469444 -4.88543 
-1.76192 -0.428644 -4.90765 
1.90435 -0.502206 -4.90137 
-0.871541 1.39483 -5.0123 
2.0915 0.328257 -4.96313 
0.866585 0.41783 -4.78625 
0.825177 0.39198 -4.78899 
-0.395911 0.107425 -4.76651 
-1.11231 0.597943 -4.95158 
-1.62601 -0.935497 -4.86716 
2.17209 1.08473 -4.98911 
0.908475 0.696966 -4.71456 
-1.15256 0.924766 -4.97516 
2.41408 0.962966 -4.97865 
-1.14304 1.10019 -4.99696 
0.316397 0.401601 -4.66991 
-1.3785 1.67711 -5.01925 
-0.995648 1.53312 -5.01325 
-0.827679 1.62287 -5.00568 
0.406943 -0.724011 -3.43242 
-1.32956 0.0572465 -4.94083 
-0.808274 -0.388415 -4.46195 
-1.3595 1.08632 -4.98445 
-1.10656 0.895469 -4.97765 
2.48144 0.914723 -4.98893 
-0.123962 -0.396971 -4.46452 
-0.970059 0.603183 -4.95514 
-1.03894 1.48343 -4.99996 
2.42436 0.579847 -4.9598 
2.35612 -0.513971 -4.9053 
0.248733 0.868914 -4.70331 
1.36145 1.19451 -4.99797 
-0.613732 1.46195 -4.99731 
2.18223 0.923098 -4.97529 
-1.81931 1.46142 -4.99944 
1.60822 1.2248 -4.99821 
2.19488 0.553869 -4.95855 
-1.74287 1.4019 -4.99659 
0.144001 1.27804 -4.6268 
-1.7401 0.557493 -4.96415 
2.31081 0.83459 -4.97833 
1.1 -0.0128273 -4.74236 
-1.69635 0.926644 -4.97719 
1.25842 -0.901458 -4.42452 
2.09208 -0.265966 -4.93148 
2.52699 -0.912547 -4.8708 
2.57614 0.750466 -4.98059 
-0.678891 1.39733 -4.99708 
-1.19876 0.5669 -4.96352 
0.535219 -0.547476 -4.39119 
-1.79604 -0.267853 -4.90975 
-2.00747 0.250144 -4.93672 
0.269104 1.44471 -4.52768 
2.23162 0.914094 -4.97472 
2.00323 -0.468027 -4.9067 
-0.3724 -0.723099 -3.43156 
-1.74046 -0.762238 -4.87624 
0.775135 1.47039 -4.61287 
-0.344909 -0.847274 -3.42811 
2.32973 0.716649 -4.96717 
1.39822 -0.558938 -4.39172 
-2.09337 -0.618792 -4.89023 
0.847819 0.468607 -4.75905 
2.50817 0.901511 -4.99239 
1.85676 0.790635 -4.97927 
2.48323 -0.411371 -4.91376 
-1.03857 -0.0848743 -4.66914 
1.13498 1.29242 -4.98801 
-2.05794 -0.212698 -4.91373 
-1.79995 -0.0473254 -4.91763 
-1.4503 1.23651 -4.98752 
-0.25721 -0.149589 -4.64668 
2.27938 0.396248 -4.9594 
2.56349 -0.733108 -4.89988 
2.14654 0.975694 -4.98194 
-1.408 1.28176 -4.99811 
2.08253 -0.595554 -4.90237 
-2.2061 0.434508 -4.93562 
0.925567 0.0482397 -4.76192 
2.27341 1.07728 -4.99898 
1.37758 -0.130971 -4.65468 
2.54837 -0.282886 -4.92221 
-0.478609 0.600364 -4.79561 
-1.90721 -0.560972 -4.90808 
-0.596143 1.42541 -4.9855 
-1.71325 0.0303402 -4.9343 
1.90193 -0.141019 -4.93712 
1.77771 -0.949988 -4.88302 
-1.03319 -0.3818 -4.46512 
1.07444 0.319431 -4.76269 
-1.47909 0.590873 -4.96929 
1.40165 0.899286 -4.98983 
2.13361 -0.362116 -4.9094 
-0.490979 -0.334229 -4.46721 
2.15386 -0.142275 -4.94132 
2.06381 -0.918703 -4.88346 
2.32269 0.733038 -4.97907 
2.46441 -0.475138 -4.90458 
-1.14289 -0.415872 -4.46472 
1.75558 0.579229 -4.97208 
-1.46768 1.76753 -5.01593 
1.1072 1.30931 -4.9991 
-1.06228 1.6197 -5.01203 
2.22683 1.08547 -4.9961 
1.27279 0.725968 -4.96029 
-1.77361 -0.52086 -4.88814 
0.96599 0.965272 -4.70272 
-2.1607 1.31638 -4.98834 
0.600852 -0.642891 -3.43554 
1.02766 0.544915 -4.77182 
2.41596 1.25347 -5.00467 
