ply
format ascii 1.0
comment VTK generated PLY File
obj_info vtkPolyData points and polygons: vtk4.0
element vertex 1718
property float x
property float y
property float z
element face 0
property list uchar int vertex_indices
end_header
-0.283814 1.20006 -4.53137 
-1.71763 1.53694 -5.25574 
1.77973 -0.211072 -4.51486 
-1.30557 0.756243 -5.12572 
-0.243451 0.84778 -4.6252 
-1.80129 0.442176 -5.23627 
-1.28797 -0.345993 -4.61554 
-0.321749 -0.525017 -4.34486 
-1.81521 1.16189 -5.24124 
-1.07143 1.46652 -5.1188 
-0.187774 -0.741075 -3.32483 
-1.51789 0.219449 -5.14431 
1.50899 1.28499 -4.62037 
-1.5812 0.953636 -5.20218 
-2.11732 0.305487 -5.27517 
-2.0145 1.12378 -5.29106 
-1.64281 -0.251105 -5.12668 
-2.13413 0.376414 -5.2793 
1.61958 0.330128 -4.56162 
-0.310427 1.11345 -4.57124 
-1.19242 0.253914 -4.80638 
1.56099 0.621653 -4.57987 
0.842252 -0.307014 -4.20566 
-1.81747 0.0214145 -5.22427 
-1.21704 0.452419 -4.73072 
1.41897 0.985433 -4.61695 
-1.567 1.13854 -5.20513 
-0.651288 -0.406195 -4.47827 
-0.605368 1.51422 -4.58768 
-0.373092 0.487402 -4.61441 
-1.5528 1.54328 -5.22029 
0.819401 -0.401527 -4.20172 
2.02366 0.856175 -4.5047 
2.15025 -0.116069 -4.45354 
-0.69828 0.0113201 -4.79518 
-2.10118 -0.245359 -5.25535 
-0.757416 -0.370219 -4.49662 
1.56097 0.084138 -4.5459 
-2.12143 -0.26988 -5.238 
1.88258 0.0659503 -4.50512 
0.354591 1.17922 -4.40116 
-0.359954 -0.270352 -4.49142 
1.63635 -0.392133 -4.52699 
1.02512 -0.478704 -4.15812 
-0.109657 -0.624319 -3.31674 
0.131833 0.00139655 -4.50019 
2.00863 0.955295 -4.52027 
-1.17592 -0.303951 -4.58079 
-0.508059 -0.798706 -3.39015 
-1.55713 1.29168 -5.21619 
0.330026 1.11336 -4.43155 
-1.98668 -0.292522 -5.20892 
-0.190032 -0.339797 -4.39676 
-0.715346 0.145907 -4.73431 
-1.69921 1.65616 -5.25911 
1.59149 -0.998243 -4.44199 
2.21401 1.20365 -4.49573 
-1.24788 0.182378 -4.80714 
-0.360862 0.471132 -4.61888 
0.0162387 0.417971 -4.49432 
0.344519 0.300839 -4.49679 
1.91774 0.492604 -4.51825 
-1.87075 -0.869979 -5.15527 
0.870677 0.632996 -4.44716 
0.00619825 -0.739358 -3.27858 
0.858168 0.450108 -4.50746 
-2.20343 -1.13352 -5.11879 
-0.690043 -0.752572 -3.42464 
0.265402 1.20048 -4.41437 
-1.56972 0.976975 -5.20043 
2.04087 0.257774 -4.48429 
-0.642832 -0.429256 -4.47179 
-0.713949 -0.41475 -4.49002 
-0.0551418 -0.330039 -4.36787 
-0.240741 0.733389 -4.61938 
1.92732 0.63341 -4.5244 
-2.22807 -0.560175 -5.24657 
-0.382742 -0.345206 -4.42694 
2.1558 0.476426 -4.4735 
1.65909 0.391386 -4.55593 
0.802808 -0.310919 -4.21336 
1.57167 -0.306066 -4.54321 
0.490545 0.415093 -4.59144 
1.50099 1.35362 -4.62088 
-0.402223 0.0325319 -4.6292 
-0.427174 -0.611682 -3.38192 
1.20314 -0.395939 -4.13033 
1.8043 -0.199738 -4.51615 
-1.20429 1.35576 -5.14171 
-1.42317 1.63009 -5.20786 
1.83708 0.950631 -4.54763 
-1.98265 -0.62123 -5.19407 
-1.21472 0.615486 -5.10335 
1.07503 -0.098246 -4.3471 
0.648842 0.67818 -4.54771 
-0.423404 0.444184 -4.64361 
-1.65939 0.946509 -5.21158 
0.602123 0.943613 -4.56656 
1.9325 0.384734 -4.51698 
-2.04467 0.241412 -5.25204 
-1.68996 0.389597 -5.19309 
-1.22862 -0.0217364 -4.81237 
-2.02651 -0.563859 -5.20492 
-1.06824 1.5473 -5.12289 
1.43657 0.989069 -4.61954 
0.664938 0.38067 -4.55558 
-0.331449 0.676506 -4.60716 
-0.0886039 0.672973 -4.57226 
-0.012495 0.379524 -4.4924 
0.0503363 1.00025 -4.57395 
1.16605 -0.095786 -4.3379 
0.184756 -0.49252 -4.25075 
-0.112289 0.158904 -4.47828 
-0.571046 -0.0771111 -4.77598 
1.54218 0.812289 -4.59656 
-1.98919 0.441351 -5.25357 
-0.423379 -0.332112 -4.43816 
-2.05579 0.99596 -5.28517 
0.74617 0.143713 -4.52719 
1.10068 1.50681 -4.69878 
-2.01038 1.10855 -5.27273 
0.675403 0.987435 -4.48282 
-0.750197 -0.363942 -4.47523 
-1.81244 -0.244861 -5.17785 
-0.665298 0.224151 -4.78726 
-1.74222 1.15311 -5.24802 
-1.28106 1.45144 -5.15872 
1.84045 -0.205355 -4.50459 
1.31989 1.35836 -4.67122 
1.04411 1.37337 -4.70932 
-0.843136 1.54679 -5.07812 
-0.314439 1.15435 -4.52266 
-0.0112417 0.347734 -4.47729 
-1.11651 1.71837 -5.13761 
1.71309 0.966996 -4.57146 
1.86841 0.833139 -4.53385 
0.714379 0.00800852 -4.53768 
-1.27849 0.610753 -5.12933 
1.11827 1.39808 -4.70242 
0.321603 1.11301 -4.43173 
-1.68673 1.33042 -5.24953 
-1.4405 1.555 -5.20259 
-2.01719 -0.81504 -5.18592 
-1.51626 -0.0779327 -5.1362 
-0.04381 -0.607723 -3.30671 
2.16739 1.34063 -4.51731 
0.111748 0.408155 -4.53893 
-0.381202 1.1243 -4.55043 
1.08471 0.148797 -4.46927 
-1.53876 1.4575 -5.21355 
0.000977 0.946136 -4.57954 
-0.731915 -0.941737 -3.3794 
1.73928 0.474614 -4.55543 
-1.13592 -0.14674 -4.77649 
-2.02853 -0.652978 -5.20301 
1.72836 0.0447388 -4.53334 
1.48789 0.348657 -4.58096 
0.379618 -0.334946 -4.28889 
0.933533 -0.37386 -4.18126 
-0.0583056 0.327306 -4.50097 
1.23064 1.24555 -4.67214 
0.934116 1.27437 -4.71665 
-0.217998 -0.0755466 -4.55181 
0.269813 -0.338663 -4.3093 
1.76406 -0.0885521 -4.51449 
2.04293 -0.544375 -4.44179 
-2.3345 -0.0749003 -5.29373 
1.47844 1.26609 -4.62252 
2.0893 0.39133 -4.48649 
-1.62882 -0.0515551 -5.16038 
-2.16205 1.42921 -5.3363 
-0.100143 -0.92141 -3.25319 
1.49615 1.34674 -4.62436 
-0.861544 1.54127 -5.07642 
1.01343 1.34948 -4.70806 
-0.657688 0.174923 -4.75334 
-0.652336 0.298548 -4.80752 
1.91954 -0.849791 -4.45961 
0.780537 0.636418 -4.52243 
1.61826 0.268012 -4.57292 
1.79726 0.977655 -4.54797 
1.46617 0.0731284 -4.56794 
-1.23736 -0.0730973 -4.79356 
1.70052 -0.0691226 -4.54305 
0.0593306 0.349479 -4.53453 
1.5526 -0.385621 -4.54146 
-0.538837 -0.643271 -3.40034 
1.64346 1.30891 -4.59617 
1.13254 -0.394365 -4.14764 
-1.55831 0.507843 -5.16618 
0.681724 0.244349 -4.53474 
-1.02826 -0.444356 -4.55255 
1.89591 -0.229069 -4.48586 
1.55983 0.649966 -4.586 
1.14366 0.355885 -4.25998 
1.46173 0.069689 -4.56251 
-0.0336785 0.231347 -4.58733 
1.28616 0.965464 -4.64708 
1.00907 -0.256232 -4.26021 
-1.9937 -0.195441 -5.21736 
-1.57602 1.39512 -5.21169 
1.70672 -0.393799 -4.51734 
-1.79899 -0.176864 -5.1681 
-1.04009 1.5509 -5.11811 
1.51739 0.0781952 -4.55209 
1.84254 0.80002 -4.53286 
0.651477 0.181944 -4.52343 
1.23261 1.25652 -4.67557 
-1.34748 -0.406226 -4.61107 
-1.76992 1.17124 -5.25454 
1.39369 0.796036 -4.62234 
1.75423 0.853405 -4.56017 
-1.07009 1.59807 -5.11843 
1.65021 -0.854134 -4.50428 
-1.23275 -0.0307975 -4.81885 
1.44736 -0.432415 -4.55521 
1.82174 -0.117511 -4.50282 
-1.88548 1.40988 -5.28383 
1.99119 -0.651749 -4.44832 
-2.07008 0.0439462 -5.24185 
-0.261607 -0.809475 -3.33493 
0.863093 0.41323 -4.49772 
-0.652597 0.362066 -4.80373 
0.960664 0.807073 -4.7059 
0.915547 -0.401935 -4.18339 
1.80397 0.448579 -4.53725 
-0.374378 0.0946455 -4.61988 
1.09437 1.43012 -4.71068 
1.95243 -0.0559665 -4.48763 
0.582532 0.182825 -4.55387 
-0.668539 -0.0890322 -4.79257 
-0.00651024 -0.686248 -3.29609 
-2.05838 0.613169 -5.27333 
-1.79424 1.16534 -5.25145 
-1.5612 1.28549 -5.21056 
1.30118 1.17475 -4.66055 
-2.1386 0.00460774 -5.26586 
1.52273 -0.302545 -4.55248 
2.3147 0.467579 -4.45212 
2.06266 1.16336 -4.50878 
-0.771017 -0.431147 -4.504 
0.0788497 0.375153 -4.52917 
-1.80294 0.447225 -5.21155 
-1.35447 0.955435 -5.15532 
-1.84371 0.0115271 -5.21185 
-0.696395 0.672014 -4.80501 
2.05923 -0.126417 -4.46198 
0.193405 -0.0301487 -4.52147 
-1.28405 0.940283 -5.14137 
1.79646 -0.219003 -4.51366 
-1.47744 1.16855 -5.18447 
1.57866 0.64808 -4.58357 
1.74989 -0.781148 -4.49249 
-2.15371 -0.90082 -5.20552 
-2.07214 0.751324 -5.28838 
-1.32882 1.4539 -5.16749 
-1.90657 -0.44988 -5.17698 
2.06894 -0.944797 -4.42632 
1.37076 0.976961 -4.62918 
-0.915691 0.310899 -4.83647 
0.968793 -0.250752 -4.27415 
2.21301 -0.618994 -4.42557 
1.96401 0.994176 -4.51964 
1.32418 0.648382 -4.62347 
-1.23609 -0.0749785 -4.79154 
1.69266 0.116536 -4.54482 
1.65657 1.05831 -4.57767 
-1.73768 -0.133081 -5.16789 
-2.11072 0.39526 -5.28681 
-1.57659 1.29334 -5.20793 
-0.768806 1.52851 -4.62771 
-0.654563 0.140869 -4.75202 
0.138138 -0.746629 -3.26435 
-2.1594 -0.664241 -5.22379 
-0.00401176 0.34459 -4.49202 
-0.265496 -0.402017 -4.40524 
-1.03211 0.547243 -4.7926 
1.59838 -0.949252 -4.50193 
1.08883 1.36392 -4.7087 
0.179708 -0.734815 -3.25893 
-1.83871 0.24964 -5.2185 
-0.894513 1.50061 -5.08802 
-1.54382 1.34485 -5.21047 
1.94835 0.973189 -4.53181 
-1.91431 -0.411761 -5.18226 
-2.16025 0.237345 -5.28881 
-1.93851 -0.846943 -5.17602 
1.70257 0.650742 -4.56497 
1.39273 0.795348 -4.6226 
2.07917 0.979605 -4.51681 
-0.705085 0.163835 -4.72708 
-2.00122 1.04373 -5.28852 
-1.3045 1.30321 -5.15325 
-0.557581 -0.339278 -4.46449 
-1.15668 -0.336375 -4.58034 
-1.82947 -0.000756242 -5.20415 
2.03701 0.832249 -4.47877 
-1.22958 0.946139 -5.12296 
1.13244 -0.0756707 -4.34389 
0.634115 0.669078 -4.56114 
-0.286946 0.331206 -4.60604 
-2.00261 -0.536381 -5.20429 
-0.0417376 0.240417 -4.61793 
-1.65398 -0.0241941 -5.15581 
1.46939 1.32274 -4.61819 
-0.451252 -0.11029 -4.63353 
-2.00397 1.07544 -5.28702 
-1.40602 1.15575 -5.17137 
2.02011 -0.649723 -4.43803 
2.1479 -0.404511 -4.43898 
1.2464 0.96008 -4.65161 
-1.89491 -0.231999 -5.20402 
1.97031 -0.746364 -4.45082 
1.70153 0.823082 -4.56633 
-0.299772 -0.51405 -4.34137 
0.311464 0.356868 -4.5092 
-2.21257 -0.556613 -5.25831 
-1.65558 1.60814 -5.2352 
-1.06281 1.74557 -5.12781 
1.32953 0.814367 -4.63227 
-2.37718 1.36726 -5.38017 
-1.29035 0.709122 -5.12439 
-0.0829678 0.176513 -4.49327 
-0.304368 0.332542 -4.62183 
1.6068 0.507558 -4.56995 
0.564887 -0.404568 -4.25282 
1.94708 -0.383147 -4.47679 
-0.0440877 -0.795371 -3.30077 
-0.663507 0.764713 -4.80589 
2.08879 -0.400855 -4.44464 
1.95163 -0.338527 -4.50179 
0.0957942 -0.0112239 -4.46807 
1.58585 0.366317 -4.56687 
-2.38511 -1.1376 -5.14769 
-1.78393 0.953822 -5.22641 
1.6 -0.644847 -4.51548 
-2.26979 -0.824865 -5.23686 
-0.264479 -0.404244 -4.40237 
2.11007 0.30692 -4.48451 
1.58957 0.357422 -4.56135 
0.687427 1.00016 -4.46081 
0.310088 -0.963591 -3.18149 
-1.69219 1.34981 -5.23803 
-1.90735 -0.996547 -5.06908 
-1.70203 -0.498966 -5.13826 
0.211847 0.188663 -4.51937 
-0.0126103 0.317647 -4.48035 
0.0581414 0.388908 -4.53752 
1.14936 -0.197819 -4.35059 
-0.298305 1.50166 -4.45868 
-1.89993 0.618843 -5.2547 
-1.59343 0.3643 -5.16634 
0.640378 0.241007 -4.54538 
1.11326 1.35678 -4.69721 
-0.22964 1.50334 -4.44694 
1.50157 0.376639 -4.57853 
-0.21776 -0.369517 -4.39401 
-1.26678 0.74774 -5.14328 
1.7883 1.07695 -4.55474 
-1.95146 0.0476554 -5.21903 
0.417483 -0.16342 -4.43846 
2.13979 0.795699 -4.48097 
-1.12641 1.71934 -5.14363 
1.7409 0.665395 -4.55548 
-2.32492 0.0891349 -5.29976 
1.76794 0.0494879 -4.51843 
0.919317 0.224107 -4.48601 
1.18098 -0.253485 -4.23424 
1.75543 0.44136 -4.54768 
-1.35853 -0.452706 -4.62077 
0.505381 -0.312958 -4.2706 
-1.84919 0.225299 -5.2191 
-1.04227 -0.374887 -4.55556 
-0.472511 1.15689 -4.5591 
0.290191 -0.339631 -4.3013 
-2.11747 0.391862 -5.2838 
-2.0086 0.763441 -5.27479 
-1.37335 1.45402 -5.18091 
-1.14498 -0.0375336 -4.79602 
1.95893 -0.949116 -4.44198 
0.942263 -0.794697 -4.14704 
-1.51139 1.68829 -5.21719 
1.89911 0.516679 -4.52949 
-1.07796 0.387534 -4.82138 
1.40577 0.778843 -4.60935 
-2.02214 0.0555949 -5.23399 
-1.73587 -0.0657923 -5.17787 
0.697108 -0.426907 -4.22271 
1.19058 -0.399019 -4.1344 
-0.388933 0.311454 -4.6249 
1.21412 -1.0274 -4.03859 
1.15216 -0.372013 -4.15525 
1.10224 0.0852541 -4.4462 
-2.10781 0.282166 -5.285 
-1.60031 0.356235 -5.16378 
0.293204 0.224722 -4.5026 
0.0534768 0.113545 -4.49093 
-1.64624 0.655235 -5.19764 
0.642627 0.51936 -4.52682 
-0.0189092 0.139519 -4.41265 
-2.4015 0.944239 -5.36053 
-1.66602 -0.0471666 -5.16905 
-0.590738 -0.315018 -4.47655 
-1.9016 1.33774 -5.28334 
0.19508 -0.409288 -4.33021 
-0.310832 -0.737776 -3.35309 
1.66654 0.852877 -4.57807 
-1.93872 -0.847035 -5.18052 
1.93171 -0.391687 -4.47281 
0.851627 0.551928 -4.50533 
-0.444556 -0.627661 -3.38339 
-0.0773518 -0.343997 -4.37015 
0.291206 0.250648 -4.50138 
0.617374 0.646899 -4.57666 
1.48054 1.17396 -4.61408 
-0.181417 -0.40116 -4.39051 
0.118377 -0.00790767 -4.47886 
-1.88755 -0.503082 -5.19123 
1.15504 -0.304126 -4.1472 
-1.21981 -0.0508036 -4.80833 
-2.15369 1.05706 -5.31898 
-2.13506 0.947411 -5.31668 
-0.403435 0.675025 -4.62266 
1.68905 -0.55608 -4.47814 
0.586865 -0.701894 -3.46628 
1.13122 0.66056 -4.65769 
1.89533 -0.309232 -4.48573 
1.96556 -0.390818 -4.48283 
1.86837 0.976761 -4.54552 
-0.769358 -0.704192 -3.44267 
-0.616328 1.18596 -4.70884 
0.633602 0.081077 -4.52684 
2.11436 0.719595 -4.49368 
2.05286 0.842831 -4.48946 
-1.54695 0.952477 -5.19936 
-1.02124 -0.410317 -4.54989 
0.27505 -0.91988 -3.19169 
0.28484 -0.463403 -3.20191 
2.10409 1.25004 -4.49122 
-0.903294 0.365725 -4.83553 
0.939232 -0.405486 -4.1751 
2.04075 0.543845 -4.49137 
2.19153 0.808906 -4.47159 
0.942233 -0.288428 -4.19013 
1.11564 1.43008 -4.68973 
1.84435 0.0454234 -4.51676 
1.62115 1.36362 -4.61516 
-0.81257 -0.494331 -3.83818 
-0.00142869 -0.68752 -3.29423 
1.26552 0.636927 -4.6291 
-0.114771 -0.512125 -4.30469 
-0.83372 -0.333502 -4.52082 
1.0031 -0.245833 -4.26537 
-0.470755 -0.331081 -4.45143 
0.921366 -0.758741 -4.15384 
1.70866 -0.0248334 -4.53161 
1.00114 -0.862429 -4.13418 
2.12506 0.80614 -4.48164 
-2.27708 -0.0432518 -5.27825 
2.2622 0.946812 -4.46758 
2.02666 0.639706 -4.49743 
2.33488 1.28228 -4.46787 
-1.87498 1.12727 -5.26868 
1.17138 -0.929805 -4.08063 
2.21554 -0.412385 -4.43319 
0.656934 -0.303133 -4.23264 
-1.52895 1.17273 -5.19194 
1.14195 -0.0897089 -4.34168 
-1.96752 -0.246106 -5.23527 
1.05138 -0.336339 -4.15921 
1.94478 -0.955332 -4.44406 
-2.08778 0.787406 -5.28055 
-1.6154 -0.0438662 -5.16289 
2.21474 1.02449 -4.47797 
-0.975058 1.55208 -5.10484 
-1.63927 0.0657701 -5.15838 
-1.04756 0.973654 -5.08719 
-1.84184 -0.0131562 -5.20185 
0.693145 0.747654 -4.47843 
-0.234969 -0.703598 -3.33967 
-1.08582 -0.389176 -4.56686 
-2.15407 -0.921025 -5.20582 
-1.12938 -0.362746 -4.58308 
1.48258 -0.586654 -4.53677 
1.88889 -0.533043 -4.47901 
-2.26132 -0.882786 -5.23551 
0.320676 0.379165 -4.50698 
0.37959 -0.757336 -3.32704 
0.706082 0.445817 -4.55505 
0.85924 -0.841016 -4.16203 
-2.39263 -0.866144 -5.27354 
2.0632 1.19476 -4.49886 
-1.85736 -0.049294 -5.20495 
-1.86963 1.47236 -5.27601 
1.12169 0.263364 -4.37651 
1.07032 -0.624021 -4.13111 
1.02173 0.957046 -4.69887 
-1.47917 1.15679 -5.19628 
1.63 0.837998 -4.58123 
-1.15948 1.25798 -5.11593 
-0.0775552 -0.341454 -4.36603 
1.20439 1.28848 -4.67206 
-0.571669 0.148401 -4.78901 
-0.596782 -0.317662 -4.46917 
-1.16336 1.43273 -5.13555 
-0.751451 -0.626534 -3.44377 
1.02317 -0.508224 -4.08988 
2.08179 -0.43949 -4.4475 
-2.15725 0.98186 -5.31781 
0.0502505 -0.00389186 -4.44194 
0.326698 1.34888 -4.45237 
-1.79083 1.22436 -5.24869 
-1.86908 0.0693096 -5.22504 
-1.60889 0.327344 -5.16291 
2.14163 1.29733 -4.51577 
0.321138 0.0809116 -4.49517 
-1.80796 1.43941 -5.26833 
1.02695 -0.585679 -4.137 
1.64432 0.972837 -4.58158 
-1.56367 0.525136 -5.1735 
-1.1287 1.6582 -5.14026 
-2.135 -0.254878 -5.23857 
1.46199 0.279643 -4.58957 
1.17549 -0.825802 -4.09376 
1.47038 -0.85553 -4.54145 
1.67086 -0.676774 -4.51082 
0.24545 0.298629 -4.516 
-0.276216 0.166531 -4.60789 
1.71869 0.0430364 -4.53999 
1.7695 0.0522266 -4.53755 
-0.225759 1.33879 -4.55322 
0.976363 1.28655 -4.70682 
1.47843 1.31398 -4.62022 
-2.15215 0.248576 -5.26567 
-1.88334 0.633154 -5.24487 
-1.71081 1.70678 -5.26335 
0.874279 -0.281951 -4.19773 
0.790446 0.339945 -4.53981 
1.15638 0.318912 -4.29467 
1.24222 0.804165 -4.65183 
0.200128 -0.615893 -3.26091 
1.23791 0.627693 -4.63736 
0.700001 0.00274971 -4.5406 
-1.13798 0.933756 -5.10636 
-0.372092 0.0301211 -4.62182 
-0.946553 -0.316875 -4.55403 
0.107542 -0.50759 -4.26166 
-1.2789 0.966392 -5.12998 
1.50749 0.0558867 -4.57004 
2.17718 0.615574 -4.47479 
0.272852 0.446203 -4.51022 
-1.77336 -0.53853 -5.15672 
0.962531 0.817886 -4.69003 
0.160002 -0.0824968 -4.48877 
-0.701063 0.373787 -4.82475 
0.820526 -0.28461 -4.21736 
-0.811217 -0.371346 -4.52005 
-1.55503 1.66483 -5.22834 
-0.129013 -0.324302 -4.38604 
1.93546 0.599744 -4.52335 
1.70368 0.097784 -4.53211 
1.13982 0.396162 -4.24794 
0.428226 -0.202368 -4.39954 
1.61278 0.49163 -4.57172 
1.62432 -0.617784 -4.5185 
-1.83736 0.605365 -5.23036 
-1.69888 -0.499368 -5.13136 
0.2777 1.18556 -4.40295 
0.318552 -0.53415 -4.22327 
-1.97056 -0.832517 -5.17644 
-0.782076 0.699284 -4.74503 
1.36531 1.27728 -4.64454 
0.692685 0.744986 -4.48387 
-1.28301 -0.406114 -4.60619 
2.11493 0.795314 -4.49757 
0.19659 -0.336776 -4.32099 
0.916533 -0.34976 -4.18291 
0.293707 0.293839 -4.50446 
-1.79478 1.15485 -5.25726 
-0.715086 0.180934 -4.73976 
2.00569 0.64004 -4.50131 
-0.388458 0.311129 -4.62297 
1.36234 1.28084 -4.64927 
-0.815855 1.13755 -4.68398 
1.70472 -0.676358 -4.51249 
-0.319439 1.12904 -4.52979 
1.97861 -0.400239 -4.47698 
2.31659 0.80456 -4.45838 
-1.76988 0.874555 -5.22874 
1.08822 -0.918678 -4.11161 
0.77377 1.36999 -4.75555 
-0.35485 -1.03495 -3.19204 
-0.0367776 0.0853521 -4.37065 
-1.60672 0.964323 -5.20644 
-1.57966 0.374586 -5.17272 
-1.46058 1.71015 -5.2046 
0.515842 -0.761635 -3.41694 
-2.05499 0.43385 -5.2667 
1.96455 -0.513432 -4.46093 
-1.62683 1.57894 -5.232 
1.72887 -0.840607 -4.49022 
-0.896968 0.353633 -4.83873 
-2.34777 -1.01264 -5.14534 
0.200755 -0.677897 -3.26086 
0.47728 -0.70418 -3.39476 
1.58835 -0.889781 -4.50848 
-1.00674 -0.304072 -4.54814 
1.50075 -0.37934 -4.55348 
2.17578 -0.0847539 -4.46032 
-0.335996 -0.353204 -4.42328 
1.13225 0.656454 -4.65922 
-0.0159519 0.337086 -4.47856 
0.159566 0.0378442 -4.56019 
-0.804309 1.44853 -5.05874 
2.01177 -0.72429 -4.44405 
0.072528 1.34343 -4.50373 
1.70469 -0.676671 -4.51118 
1.75491 -0.67803 -4.49592 
2.12932 -0.68915 -4.43011 
1.75564 -0.677815 -4.5021 
1.61126 0.536291 -4.57384 
1.28345 -1.02743 -4.0271 
0.773303 1.36985 -4.75508 
1.50821 -0.294926 -4.5541 
1.48005 0.0544149 -4.57934 
-2.28847 -1.04857 -5.13604 
0.340403 0.172279 -4.49579 
-1.58198 0.300661 -5.16455 
1.14983 0.17342 -4.37176 
0.212799 -0.91484 -3.19156 
1.7347 -1.01678 -4.40245 
0.867016 0.372019 -4.49765 
-1.84803 -0.222971 -5.19704 
-0.374103 -0.110125 -4.62561 
0.416241 -0.737022 -3.35372 
0.789713 0.338874 -4.53887 
2.1555 -0.449837 -4.43238 
2.1641 -0.11646 -4.434 
-0.452508 1.16352 -4.56187 
-1.77277 1.30525 -5.24942 
0.290662 0.0312247 -4.49927 
2.15476 -0.0981274 -4.45747 
1.81303 -0.117165 -4.5034 
1.83828 -0.529172 -4.4855 
-0.892332 0.179542 -4.85566 
-0.923876 0.277125 -4.84152 
1.51565 -0.528139 -4.54614 
-1.4989 1.34932 -5.20379 
-2.24076 0.0567953 -5.29735 
-0.817832 -0.30434 -4.52529 
-0.383116 -0.478279 -4.42388 
0.276259 -0.454226 -3.20221 
2.02293 0.947991 -4.50877 
1.5598 0.506052 -4.57238 
-1.67631 1.13825 -5.23099 
2.09882 0.323473 -4.48822 
0.270151 -1.036 -3.17944 
1.06898 1.2763 -4.70058 
-0.749899 0.00576658 -4.81217 
-0.378981 0.676005 -4.61766 
1.48719 0.37544 -4.58467 
-0.065514 -0.617991 -3.31069 
-1.06276 1.66808 -5.1225 
1.93656 1.37415 -4.54573 
-1.30788 0.139888 -4.73335 
-0.572397 1.52183 -4.5818 
-0.885623 0.517106 -4.84249 
-0.453745 0.0441632 -4.64033 
1.48147 -0.391303 -4.55191 
2.30769 -0.412227 -4.41859 
-1.95342 -1.01263 -5.0921 
-2.2102 -0.396435 -5.24845 
-1.91935 -0.182344 -5.19713 
-0.9903 1.54089 -5.10258 
-1.19321 1.09963 -5.12156 
1.84894 0.636169 -4.53197 
-1.00905 -0.302338 -4.5457 
1.91828 1.36701 -4.55611 
-0.870689 1.47762 -5.07846 
0.412851 -0.259312 -4.38499 
1.65574 0.164782 -4.54879 
-0.901034 0.386163 -4.83578 
1.97029 -0.97455 -4.40368 
1.76744 -0.847156 -4.49008 
1.9825 0.0215145 -4.49115 
-0.893628 0.375747 -4.83913 
2.19767 1.25771 -4.49612 
-1.79927 -0.390707 -5.17534 
2.31488 0.510015 -4.45431 
0.890133 1.34961 -4.74055 
-1.43003 1.58602 -5.19713 
1.09369 1.4082 -4.70286 
-0.809952 -0.411505 -4.51262 
-1.57675 0.228796 -5.16158 
1.92624 -0.832757 -4.46243 
0.9806 1.12675 -4.7087 
1.95351 -0.243699 -4.47123 
1.88779 -0.51316 -4.46804 
-1.15935 0.868873 -5.10391 
-0.809816 -0.410478 -4.51412 
-0.63975 1.52164 -4.60834 
0.694921 0.758661 -4.46441 
-1.67308 -0.046459 -5.16583 
-0.714022 -0.384086 -4.48885 
-0.320366 1.02773 -4.53475 
-2.20183 -0.0259821 -5.26477 
-2.28937 -0.858022 -5.25339 
0.638641 0.163958 -4.48979 
1.61574 -0.573414 -4.51896 
1.43287 0.355746 -4.59727 
1.33311 1.28323 -4.64849 
-2.07892 -0.688977 -5.21655 
0.625691 0.222423 -4.55059 
0.870459 -0.401321 -4.19216 
0.557102 0.754382 -4.58994 
0.106097 0.375048 -4.53986 
-0.660122 0.410311 -4.81514 
-1.24814 -0.0714352 -4.7838 
-0.0787615 -0.491926 -4.29474 
1.00774 1.2704 -4.70501 
0.310044 0.0580309 -4.50201 
-1.58069 1.12161 -5.19014 
1.47109 -0.854341 -4.53617 
1.65972 -0.569042 -4.51151 
-1.93815 0.409407 -5.24031 
-1.66638 0.678312 -5.20148 
-1.57686 0.228285 -5.1604 
2.10361 0.974169 -4.49115 
1.4394 1.28064 -4.62957 
-2.14905 1.17635 -5.30872 
2.03697 0.969292 -4.50226 
0.187053 -0.336273 -4.31546 
2.04611 0.397791 -4.50525 
0.285303 -0.501832 -4.22888 
0.878966 -0.314476 -4.19857 
-1.22891 0.0272744 -4.81573 
-1.94745 -0.65649 -5.18273 
-0.713069 -0.382769 -4.48935 
-1.51095 1.28057 -5.19926 
-1.47594 -0.0590877 -5.1249 
-0.980507 -0.302273 -4.55314 
-0.448217 -0.325032 -4.44383 
0.586812 0.333767 -4.57335 
0.749082 1.43884 -4.75599 
0.450194 -0.402224 -4.26972 
2.27977 -0.345619 -4.41692 
-1.18549 1.53655 -5.13904 
1.69681 1.32855 -4.59011 
-0.501505 0.629956 -4.57889 
1.02345 -0.756064 -4.13739 
0.758027 1.51182 -4.76231 
0.855202 -0.29451 -4.20078 
-1.65714 1.34763 -5.23638 
0.311234 0.0574537 -4.49936 
0.538758 -0.78371 -3.44259 
-0.0558867 0.140169 -4.41507 
-1.75393 0.241157 -5.19688 
-1.77617 1.23413 -5.24838 
-1.68313 1.17003 -5.24301 
1.96043 -0.656885 -4.43958 
1.97544 1.15111 -4.53385 
-2.09679 -0.662052 -5.19594 
1.91786 0.968889 -4.53907 
-1.16102 0.892343 -5.1078 
1.21909 -0.466918 -4.1251 
-0.37043 1.4969 -4.47488 
-1.7222 -0.227244 -5.16715 
-0.314843 0.680013 -4.63289 
1.24869 1.29303 -4.66121 
1.67309 0.949275 -4.58295 
-1.19385 0.569737 -5.10105 
0.213201 -0.710436 -3.25604 
1.74649 -0.213862 -4.51287 
2.10326 1.17326 -4.50971 
1.02032 1.26709 -4.70379 
-1.92878 -0.0645209 -5.20258 
1.45419 0.371886 -4.59056 
2.24287 0.625111 -4.46072 
-1.5627 -0.211633 -5.141 
1.88964 0.24926 -4.51239 
1.65048 0.852807 -4.57936 
-1.28243 -0.363413 -4.60769 
-0.987043 1.63109 -5.10288 
-1.18697 0.987282 -5.12004 
1.56741 0.64063 -4.58766 
0.0439304 0.913332 -4.58778 
-1.50892 -0.0529457 -5.12681 
-2.00878 0.716294 -5.28765 
0.0679763 1.08056 -4.57972 
2.19965 0.481498 -4.46217 
0.26368 -0.50326 -4.23127 
1.48206 0.068558 -4.56299 
-1.89321 0.651625 -5.2411 
-1.88494 1.58668 -5.28949 
-1.9387 -0.0158977 -5.21324 
2.10052 0.28867 -4.46386 
-1.02182 -0.355195 -4.55296 
1.91933 0.582176 -4.515 
-0.306189 -0.369083 -4.41794 
2.11124 0.277414 -4.48222 
-0.658754 -0.338826 -4.48808 
-0.697105 -0.405974 -4.49246 
1.58009 -0.180287 -4.54301 
1.09991 1.39263 -4.70163 
-1.0895 1.45254 -5.12423 
-0.467453 1.24612 -4.58537 
2.05418 -0.508683 -4.4447 
0.462553 -0.687071 -3.38475 
1.98108 0.987319 -4.51222 
1.28586 1.28219 -4.65743 
-0.351745 -0.379453 -4.4301 
-0.226982 -0.313419 -4.4106 
1.01215 -0.29696 -4.18249 
-0.225117 0.0551018 -4.51592 
-1.21466 1.27893 -5.13569 
1.11357 0.131036 -4.4289 
-0.681388 -0.402789 -4.48853 
1.43664 0.347055 -4.58909 
-0.68586 -0.743294 -3.42496 
-1.87628 0.29815 -5.22596 
1.42464 0.797658 -4.61362 
1.9654 1.11307 -4.52332 
-1.46367 1.17492 -5.18773 
-0.680095 -0.451133 -4.48615 
-0.0497524 0.504148 -4.54804 
-1.81517 0.416393 -5.21792 
-1.9335 -0.0989418 -5.20451 
0.0229702 -0.400205 -4.35002 
2.02776 0.456497 -4.50431 
0.979683 0.835576 -4.68802 
-1.62721 -0.144173 -5.14398 
1.21857 1.27735 -4.67948 
0.297704 1.14194 -4.42052 
1.9376 -0.574513 -4.45068 
-1.30182 0.603231 -5.11783 
-2.17169 -0.0475396 -5.20945 
0.528263 -0.0307036 -4.57183 
0.0430471 0.613746 -4.57222 
-0.235808 -0.316631 -4.39966 
1.4213 1.28524 -4.63243 
-1.87675 -0.511687 -5.20356 
0.244347 0.302857 -4.5172 
0.492557 0.650734 -4.58568 
-1.61189 0.240998 -5.1675 
0.465421 -0.828967 -3.38224 
1.18034 1.25212 -4.67602 
-0.260351 -0.466889 -4.40062 
1.94811 1.03997 -4.52734 
1.5327 -0.371469 -4.5424 
2.27912 0.982888 -4.48029 
1.50861 -0.362944 -4.54399 
2.18211 0.453214 -4.45098 
1.44285 1.07843 -4.62516 
1.35979 1.35269 -4.65541 
-0.00365365 0.244993 -4.57358 
-0.905063 1.45875 -5.0833 
2.03599 0.873307 -4.5059 
2.08086 0.46151 -4.49022 
1.23503 0.951009 -4.66193 
-0.671881 0.728914 -4.80169 
-0.776224 0.736108 -4.76474 
-0.369912 -0.017398 -4.61775 
1.6766 -0.390204 -4.51166 
0.0545281 -0.0299261 -4.4468 
-1.80083 1.37317 -5.25364 
0.276288 0.698746 -4.6036 
2.14021 0.253969 -4.47526 
-0.257452 1.04918 -4.63425 
2.25912 0.984386 -4.47556 
-1.60989 0.245239 -5.16691 
-0.673148 -0.449902 -4.49224 
0.318431 -0.516753 -4.22245 
1.90457 0.927738 -4.49978 
-0.0188705 1.34653 -4.50465 
-1.33825 0.6086 -5.13426 
2.16845 -0.196094 -4.43702 
1.63696 0.484625 -4.5639 
-1.25285 0.422633 -4.72621 
-0.493401 -0.684036 -3.38929 
-1.39167 1.14734 -5.17993 
2.28051 -0.623321 -4.40874 
1.43202 0.127799 -4.58319 
1.74346 0.273449 -4.53534 
1.44119 1.32939 -4.64884 
1.31459 -1.06844 -3.73556 
-1.79104 0.891418 -5.23555 
-1.92629 -0.37415 -5.19885 
-1.82902 -0.013423 -5.21016 
1.96971 0.821656 -4.51319 
-2.12181 0.348202 -5.27932 
1.15735 -0.103489 -4.34716 
1.71235 -0.441289 -4.50496 
1.2413 0.970013 -4.65677 
-1.86284 0.0539623 -5.20516 
-2.04956 0.976078 -5.27793 
1.72502 1.35019 -4.59545 
-0.652729 0.643889 -4.82105 
1.14849 -0.0769674 -4.34059 
-0.175509 -1.03086 -3.25903 
-1.35164 -0.386137 -4.62019 
-2.03354 -0.743044 -5.19495 
2.19731 -0.469513 -4.42283 
1.87055 -0.857179 -4.46615 
1.81914 0.176921 -4.51974 
0.294487 -0.345325 -4.30225 
1.0069 -0.943673 -4.0786 
0.339386 0.287836 -4.49723 
-0.00723225 -1.01623 -3.23286 
1.8391 0.841829 -4.5483 
0.428425 -0.276 -4.35928 
-2.13492 -0.193564 -5.24263 
1.12584 -0.50619 -4.07551 
-1.14149 1.45922 -5.12785 
-2.20361 -0.866891 -5.23225 
-1.25854 0.943489 -5.13743 
0.990149 -0.735964 -4.14374 
2.08241 -0.481514 -4.43986 
-0.263688 -0.322964 -4.41 
-2.02549 0.0343064 -5.24107 
2.11193 1.28479 -4.51033 
2.2706 0.995994 -4.46885 
-1.36769 -0.413202 -4.62095 
-0.650926 0.368671 -4.80864 
1.57583 -0.145496 -4.55085 
-2.14419 -0.284396 -5.24016 
1.05675 -0.837177 -4.12452 
1.54357 0.182016 -4.55954 
-0.723618 0.123852 -4.74953 
0.828362 1.5433 -4.75028 
1.22045 0.956793 -4.66086 
-1.55666 -0.0744003 -5.12768 
-1.90509 0.473356 -5.2247 
-1.22748 1.43201 -5.15703 
0.298789 1.1422 -4.41714 
1.97938 -0.401056 -4.47942 
-1.61868 0.63166 -5.20122 
1.78483 -0.824229 -4.49411 
2.21423 1.32448 -4.49795 
1.1254 -0.50113 -4.0742 
-0.193231 -0.0327115 -4.51947 
0.551911 0.878641 -4.59387 
1.12139 -0.928824 -4.09833 
0.110226 -0.400946 -4.3298 
1.33084 1.09175 -4.64147 
-0.67293 0.903747 -4.80783 
-0.667884 0.399443 -4.81459 
1.63313 0.194405 -4.55034 
-2.27669 -0.0583087 -5.27556 
-0.66663 0.316679 -4.80943 
-0.501501 1.51248 -4.48959 
1.08007 0.957514 -4.68934 
-0.244735 -0.318004 -4.41046 
-0.707298 -0.295627 -4.48618 
-0.314098 1.35737 -4.56485 
1.61768 0.022832 -4.53995 
0.291106 1.13287 -4.41988 
1.12765 1.34739 -4.69084 
2.1265 0.785843 -4.4823 
1.76476 -0.510294 -4.50322 
1.83073 0.850392 -4.54573 
-1.62328 -0.151334 -5.14457 
0.195325 -0.690702 -3.25876 
-1.43439 1.23381 -5.18233 
-2.12357 1.54121 -5.33621 
-1.97098 1.51826 -5.30937 
1.17385 -0.479664 -4.13433 
0.83221 -0.39922 -4.19694 
-1.05352 -0.320675 -4.56913 
-0.968356 -0.406753 -4.54345 
-0.426507 0.531713 -4.62884 
-1.76474 1.28875 -5.25355 
1.6568 0.639769 -4.58025 
2.04136 0.544795 -4.49403 
2.26899 1.22671 -4.48372 
0.84731 -0.400269 -4.19454 
-1.83126 0.23795 -5.22008 
1.16432 0.37036 -4.24885 
0.22682 -0.636585 -3.24903 
2.24387 -0.882488 -4.39713 
1.846 0.966593 -4.54595 
0.314823 -0.689561 -3.28152 
-1.11504 -0.195422 -4.81983 
1.01765 0.144198 -4.4605 
-1.79243 1.16221 -5.25914 
-1.80755 1.28192 -5.24826 
-0.0486587 -0.808107 -3.2972 
1.81186 -0.403603 -4.49596 
1.63556 0.019259 -4.5442 
1.67091 0.235993 -4.54703 
0.194187 0.172651 -4.53208 
2.01865 0.25232 -4.49684 
-1.31368 0.959445 -5.14613 
-0.785897 0.765411 -4.73162 
-0.941035 -0.401632 -4.53441 
-1.12009 1.45473 -5.12415 
1.9148 0.392811 -4.51304 
-2.33092 1.34736 -5.35647 
0.108541 -0.401532 -4.3323 
1.5743 -0.522525 -4.53753 
2.19097 -0.0071617 -4.45419 
-0.988465 1.42918 -5.09456 
-1.67543 0.052209 -5.16979 
-1.493 -0.0950125 -5.12971 
1.77605 1.14496 -4.5577 
1.14364 -0.0479027 -4.34375 
-2.25414 -0.802797 -5.23284 
1.23059 0.925767 -4.65684 
2.11342 0.795493 -4.47782 
1.18965 0.958482 -4.65179 
-1.87567 0.116526 -5.21375 
-1.82689 1.33854 -5.27289 
0.805399 0.700461 -4.47085 
-0.412005 -0.430845 -4.43471 
-1.97062 1.0709 -5.28427 
0.433204 -0.757273 -3.36146 
-1.99838 1.33383 -5.30325 
1.7883 1.02265 -4.55364 
-1.47012 0.0922621 -5.14158 
1.98245 -0.0972145 -4.47793 
-1.83642 -0.159357 -5.1829 
-0.0350967 -0.00879088 -4.45766 
-0.0520056 0.13651 -4.40949 
0.341224 0.171265 -4.49318 
1.66623 -0.223354 -4.53814 
-1.36709 1.48205 -5.18225 
2.19659 0.643972 -4.46625 
-0.444056 -0.406138 -4.44146 
1.62231 0.0406341 -4.53758 
0.318725 1.19709 -4.44841 
1.9369 -0.964627 -4.44121 
1.72062 -0.070969 -4.52791 
0.954081 0.920001 -4.69183 
1.12769 0.961436 -4.67643 
-1.77154 -0.082015 -5.17081 
0.667891 0.676675 -4.54297 
0.927518 -0.353283 -4.18193 
0.293 -0.0119226 -4.49654 
-1.02357 1.52645 -5.10988 
-0.34407 -0.888215 -3.33191 
1.1247 0.769059 -4.67201 
0.053978 -0.0427246 -4.44952 
-2.02487 -0.808117 -5.17498 
0.474884 0.754919 -4.60019 
1.6318 -0.632073 -4.5209 
-0.500041 1.42022 -4.61448 
1.57708 -0.389142 -4.54498 
-1.8909 0.272222 -5.22354 
0.612907 1.01643 -4.51323 
1.52142 -0.271481 -4.54954 
-0.467326 1.16554 -4.559 
0.793471 -0.444169 -4.20214 
1.78447 0.0441338 -4.52767 
0.801314 0.655265 -4.49914 
-2.31242 -0.877236 -5.24314 
2.27329 0.625891 -4.46443 
1.31714 1.12573 -4.64771 
-1.54526 -0.233356 -5.12576 
0.265073 0.0810959 -4.50232 
-1.11986 1.0076 -5.10446 
2.30062 0.967754 -4.46836 
1.39498 0.264185 -4.60375 
2.01462 -0.748655 -4.44004 
-0.282121 -0.88625 -3.31704 
0.614048 0.00752501 -4.55623 
1.73261 0.823141 -4.5642 
0.744193 1.01562 -4.45158 
-1.9773 -0.063234 -5.22111 
-1.90046 -0.0291153 -5.19586 
-1.28356 1.14628 -5.15313 
2.06866 0.626785 -4.49781 
2.24556 -0.565037 -4.40869 
0.441959 -0.162942 -4.49088 
1.44571 0.053218 -4.57192 
-1.01742 0.940639 -5.09356 
-0.000457189 0.357762 -4.4782 
-2.02448 0.0367655 -5.23833 
-0.670759 0.857773 -4.81091 
-0.666376 0.663029 -4.80735 
1.09637 0.779571 -4.66835 
0.932059 -0.0576708 -4.49456 
-2.25265 -0.545515 -5.25766 
2.11826 -0.403926 -4.44275 
0.612977 0.587138 -4.57414 
1.94929 0.0495136 -4.49295 
2.26419 0.458269 -4.46417 
1.86445 -0.233945 -4.49857 
-1.14555 0.907388 -5.106 
-1.60967 1.60157 -5.22968 
2.29176 -0.0486164 -4.42573 
2.12756 0.781286 -4.48433 
1.5029 0.983769 -4.60976 
-1.93822 1.54227 -5.28719 
-1.46438 0.806373 -5.19075 
0.655301 0.128903 -4.48678 
1.47513 0.465448 -4.58127 
2.18842 -0.656314 -4.41502 
-0.00892334 0.938251 -4.58227 
1.52884 -0.973857 -4.49107 
1.82365 -0.0901087 -4.50951 
2.22337 0.647033 -4.46863 
-2.3435 -0.84749 -5.24114 
1.273 0.657537 -4.63323 
-0.994161 -0.491194 -4.54203 
-1.75131 1.2605 -5.25334 
-1.57609 -0.150931 -5.14199 
0.944125 0.962551 -4.71163 
2.21622 0.754387 -4.47037 
1.89861 0.170585 -4.49915 
-0.0611506 -0.740276 -3.30352 
-1.63542 -0.227042 -5.15651 
0.36433 1.27469 -4.43577 
-0.293568 -0.12303 -4.60501 
1.61916 0.218731 -4.5435 
0.991044 1.34945 -4.7169 
-0.0792556 0.532535 -4.58805 
-1.50725 0.0898779 -5.13174 
1.91336 1.33349 -4.54202 
-0.503984 -0.689164 -3.39104 
-2.39469 -0.693323 -5.27692 
-0.680621 -0.398121 -4.48579 
2.08793 -0.420527 -4.44635 
-0.32353 0.0116237 -4.60326 
1.88356 -0.0759786 -4.49722 
1.98954 1.28747 -4.54293 
-1.19659 0.51191 -5.08846 
2.17289 0.456446 -4.46707 
1.94603 0.951572 -4.52873 
-1.407 0.777187 -5.15061 
-2.14606 -0.814034 -5.21902 
1.40296 0.281035 -4.59388 
1.90101 -0.0115934 -4.49256 
1.76592 1.29107 -4.57848 
2.11643 0.902907 -4.51158 
-1.14631 1.24431 -5.12767 
-2.13008 0.225877 -5.27711 
2.12303 0.64662 -4.48629 
-2.10513 -0.374212 -5.24782 
1.92147 -0.218755 -4.51346 
1.62774 -0.485136 -4.50667 
2.11064 0.388132 -4.48525 
0.935958 1.124 -4.71824 
-1.93444 -0.42749 -5.17559 
-1.26034 1.21516 -5.13924 
0.216161 -0.733082 -3.2536 
1.99329 1.13684 -4.52009 
-1.91171 -0.488149 -5.17231 
0.355353 1.08109 -4.44373 
-2.01718 0.235865 -5.25432 
2.12857 -0.445235 -4.43526 
-1.3931 0.584444 -5.10707 
0.608504 0.930928 -4.56959 
0.916069 1.43916 -4.72435 
-2.00674 0.986315 -5.29522 
1.68521 0.365104 -4.55179 
1.76832 0.410392 -4.53068 
1.05081 -0.784452 -4.13124 
1.25687 1.15041 -4.66608 
-2.09467 1.12178 -5.30336 
-1.58316 1.12238 -5.1916 
-1.78987 0.0761823 -5.19482 
1.86021 1.21905 -4.55338 
-0.350198 -0.504952 -4.34827 
-1.73896 0.251952 -5.19779 
-1.163 1.2563 -5.11692 
1.4876 0.48535 -4.58328 
0.915705 0.125752 -4.50558 
1.95563 0.980483 -4.52505 
0.116804 0.873342 -4.55458 
-2.3441 -0.616086 -5.2552 
-1.14617 0.0725743 -4.87136 
-0.295981 -0.797244 -3.33989 
0.96062 1.35441 -4.72723 
-1.95229 -0.276748 -5.20267 
2.1419 0.58532 -4.47926 
-1.93201 -0.238328 -5.20252 
0.123655 1.46022 -4.46067 
1.63139 -0.0672516 -4.57007 
-1.29642 0.970335 -5.14145 
-1.5796 1.27 -5.20443 
1.9352 -0.205287 -4.48886 
0.109398 0.447207 -4.54316 
-1.84172 1.32613 -5.28135 
1.7387 0.669932 -4.55784 
0.289452 0.201097 -4.50394 
1.77271 0.457936 -4.55097 
1.47369 0.35908 -4.59742 
-0.418652 -0.0600263 -4.63235 
-0.0449575 0.307664 -4.49326 
-0.851168 1.51132 -5.07734 
-0.949759 -0.354307 -4.52883 
1.10046 0.94485 -4.67463 
-1.77102 1.22403 -5.25528 
0.315434 -0.328897 -4.29962 
1.3212 1.39795 -4.65916 
-1.92518 0.0267491 -5.21897 
1.87234 0.109242 -4.50959 
-1.226 1.21102 -5.13579 
0.931925 1.36765 -4.72728 
-2.25677 0.0393668 -5.28448 
-0.923 -0.356997 -4.5319 
1.56153 -0.141569 -4.54864 
0.389256 0.468117 -4.49516 
2.30731 0.519412 -4.44951 
1.08851 0.115544 -4.44619 
0.267837 0.450284 -4.51974 
2.15391 0.458338 -4.48467 
-2.31669 -0.095801 -5.29152 
0.900478 0.0346064 -4.47338 
1.78387 0.0423811 -4.52699 
-0.327506 1.18547 -4.51891 
-1.04666 0.140876 -4.85418 
1.54267 0.508597 -4.54167 
-1.57111 1.0868 -5.19634 
1.93444 -0.363383 -4.47953 
0.665333 -0.469263 -3.47086 
-1.09124 1.54344 -5.12415 
1.61173 0.305056 -4.57411 
1.44454 1.34116 -4.62962 
-1.75145 0.938427 -5.24552 
1.64156 1.1927 -4.59049 
-1.51225 0.0922431 -5.13263 
1.96524 -0.513669 -4.46283 
-1.0324 1.02747 -5.08625 
-2.00693 -0.121139 -5.21868 
0.267499 0.378875 -4.51196 
-1.5564 -0.067859 -5.1389 
1.74522 -0.651702 -4.49645 
0.90031 -0.690342 -4.15888 
-1.96462 -0.739116 -5.1793 
0.561974 -0.335532 -4.24948 
1.75544 -0.0632919 -4.52209 
0.316215 -0.50199 -4.22223 
-2.21048 -0.369028 -5.24603 
-2.13703 0.513904 -5.2848 
2.05974 1.17795 -4.51174 
-1.06129 1.4515 -5.11525 
-1.13459 0.797491 -5.10695 
1.11893 1.13465 -4.67818 
-0.319409 0.546795 -4.59896 
-2.23459 1.19058 -5.33339 
1.96965 0.0304424 -4.49846 
-2.41415 1.14865 -5.38482 
2.19354 -0.570807 -4.42094 
-0.878534 1.34267 -5.07491 
-2.17519 1.371 -5.33433 
-1.92102 0.179476 -5.22435 
1.65583 0.34921 -4.55403 
-0.0311738 -0.630557 -3.30506 
1.01497 1.49296 -4.71227 
2.08712 0.628204 -4.49127 
1.71111 -0.0798986 -4.53374 
-0.586342 -0.930665 -3.34733 
1.11506 0.639499 -4.66704 
0.176799 -0.351473 -4.31997 
0.00257116 -0.752979 -3.29267 
-2.00675 -0.396407 -5.21791 
1.09248 0.783446 -4.66164 
-1.90043 1.56901 -5.29201 
1.62752 0.285772 -4.54548 
0.247019 -0.917985 -3.18289 
0.696774 -0.0745805 -4.53765 
-0.372488 0.412088 -4.63705 
-2.216 1.33672 -5.3246 
-1.78905 -0.407433 -5.17345 
1.50748 0.653154 -4.59065 
-0.235867 -0.0985967 -4.57096 
1.72307 -0.488898 -4.50562 
1.71318 -0.661069 -4.51322 
2.23724 0.256111 -4.45142 
1.84691 0.820056 -4.5422 
-0.403864 0.165234 -4.6264 
-1.46347 -0.0369424 -5.11894 
-0.321491 0.312149 -4.61828 
0.106753 -0.48335 -4.32752 
1.52582 -0.367575 -4.53911 
-0.659794 -0.444008 -4.47975 
1.79472 -0.528361 -4.49342 
-2.17059 -0.750762 -5.2274 
1.46304 0.469862 -4.56864 
2.19063 -0.173106 -4.43789 
-1.20669 1.67146 -5.14793 
-1.5848 0.622289 -5.18794 
1.60351 -0.232948 -4.55494 
0.109446 0.943816 -4.55918 
1.29217 -0.981605 -4.02877 
-0.667409 0.839407 -4.81573 
-2.18306 1.13796 -5.31686 
0.77701 0.649565 -4.52367 
-1.6734 1.16059 -5.23197 
1.6328 -0.480366 -4.51519 
1.28575 0.633546 -4.63871 
0.726018 1.07481 -4.41432 
-2.02607 -0.202986 -5.22915 
1.13796 0.710017 -4.66368 
2.12874 0.368285 -4.47309 
-2.23036 -0.804664 -5.23047 
-1.81854 1.52798 -5.27481 
-2.34364 1.20807 -5.35722 
-1.23764 1.26908 -5.14178 
1.93912 0.626241 -4.52751 
-2.02476 -0.209649 -5.22689 
1.96757 -0.764455 -4.44905 
-2.11753 -0.302394 -5.23904 
1.58733 -0.203811 -4.54528 
-0.0981187 1.34015 -4.53152 
2.08698 0.796212 -4.49393 
-0.317039 0.682689 -4.60494 
-2.20248 -0.652652 -5.23708 
1.54812 -0.249776 -4.5541 
-2.02056 1.14512 -5.28642 
0.488457 0.114996 -4.58225 
2.17659 0.0351699 -4.46522 
1.53486 0.0405039 -4.56094 
-1.17083 -0.368145 -4.59419 
0.325927 -0.428947 -4.29396 
1.78245 0.731948 -4.5528 
-0.35427 0.676651 -4.61279 
1.93321 -0.070812 -4.4922 
-1.5729 1.07732 -5.20077 
-1.95432 -0.666719 -5.19047 
-1.04291 -0.220292 -4.79608 
-0.376112 1.49381 -4.46914 
2.03796 -0.40663 -4.45154 
-0.315684 0.685228 -4.60398 
1.93577 0.572015 -4.52237 
-0.314967 -0.696572 -3.35435 
2.03699 -0.314182 -4.45296 
-2.02679 -0.202978 -5.22911 
-1.5531 1.12616 -5.208 
1.43084 -0.228242 -4.58092 
-0.0456244 0.899543 -4.58954 
-2.11598 -0.337535 -5.23749 
0.369896 0.0331088 -4.48628 
0.00810398 -0.692409 -3.29361 
-0.826552 1.44897 -5.06173 
-0.420926 0.0415282 -4.6237 
0.666649 0.396631 -4.56222 
-1.54242 -0.0402329 -5.13667 
-0.205722 0.943879 -4.61107 
2.02341 1.14859 -4.51604 
-2.3438 -0.125419 -5.29122 
-1.88287 0.998465 -5.25717 
0.505597 -0.0440871 -4.57642 
-0.214536 0.985045 -4.61405 
-2.25691 1.31374 -5.35037 
1.22578 0.64008 -4.65523 
0.724206 0.0999906 -4.52529 
-0.681052 0.806942 -4.80443 
1.54159 0.651867 -4.58833 
-0.722649 0.195227 -4.81061 
-0.289047 -0.404576 -4.40813 
1.58308 1.15929 -4.60001 
1.49832 -0.376499 -4.55103 
-2.20866 1.37741 -5.34058 
1.8483 1.18158 -4.55849 
1.54812 0.815835 -4.58848 
-2.02149 -0.176853 -5.22198 
-2.12411 -0.510739 -5.20764 
-0.370108 0.286845 -4.62639 
-1.01747 1.69629 -5.11365 
1.54691 0.0537322 -4.55578 
1.5567 -0.64975 -4.52994 
-2.28075 0.792643 -5.32894 
-0.23036 -0.463917 -4.39941 
1.66615 0.380846 -4.56594 
-1.49341 0.925025 -5.17316 
1.48054 1.18038 -4.62877 
1.8522 1.15077 -4.55337 
0.897376 -0.637565 -4.16038 
-0.0162035 1.14596 -4.5952 
-0.0799501 -0.406393 -4.37814 
-1.5731 0.58916 -5.16829 
-2.00463 1.09548 -5.28098 
0.867446 -0.348177 -4.20164 
-1.02084 0.995127 -5.08879 
1.7262 -0.0658396 -4.52425 
1.30273 1.33959 -4.65314 
-1.04522 -0.109894 -4.87213 
2.12674 0.972778 -4.49375 
1.85616 1.16802 -4.5542 
1.76856 1.28794 -4.57673 
-1.98067 1.10105 -5.28787 
2.32542 0.497452 -4.4458 
-1.60712 -0.0646929 -5.14828 
2.29322 -0.345728 -4.41513 
-1.41731 0.624183 -5.1457 
1.55221 -0.147098 -4.5525 
-1.45638 0.805645 -5.18194 
-0.315128 -0.696995 -3.35405 
-2.16268 1.09127 -5.33654 
2.12941 0.735968 -4.48134 
1.5252 -0.390984 -4.55047 
1.73152 -0.288936 -4.51578 
2.1445 0.458671 -4.47681 
-2.04086 0.0589523 -5.22496 
-0.0723342 1.14603 -4.60429 
-1.63281 -0.129257 -5.14626 
1.46095 0.651833 -4.60794 
1.79798 0.164762 -4.51992 
1.70094 0.337048 -4.6029 
1.42259 1.11676 -4.62743 
1.70579 1.33687 -4.58681 
0.658329 -0.32184 -4.23575 
1.96759 -0.300773 -4.4805 
-1.0895 1.51451 -5.12178 
2.24883 0.478824 -4.45533 
-1.61049 0.0721999 -5.15925 
0.169834 -0.0585461 -4.51733 
2.28308 0.63724 -4.46251 
-0.406994 0.16585 -4.64064 
2.3035 0.46146 -4.4564 
1.01518 -0.931691 -4.11235 
-1.51619 0.144246 -5.13353 
-1.92809 0.427766 -5.24858 
-0.113954 0.943632 -4.6291 
1.85405 0.108857 -4.51148 
-0.664668 0.712444 -4.80504 
2.15088 -0.55409 -4.42836 
0.809715 1.55455 -4.7662 
1.14475 -0.81692 -4.11071 
-0.425672 0.145677 -4.63672 
1.00009 0.802174 -4.68457 
1.72086 -0.0227829 -4.52302 
-1.78124 0.419901 -5.22406 
-1.69583 1.52148 -5.24858 
-1.72041 0.242837 -5.19569 
-0.0424217 -0.829377 -3.29801 
1.75916 0.641883 -4.559 
1.87772 0.393696 -4.51863 
2.31474 0.998759 -4.46444 
-0.981027 0.954468 -5.07239 
-1.88682 0.597961 -5.2582 
1.86222 0.0546799 -4.50474 
1.98235 -0.823389 -4.45103 
1.95883 0.0530843 -4.49877 
-2.0947 -0.0664845 -5.24894 
-1.72615 0.0529281 -5.1788 
1.24051 1.05779 -4.65143 
1.44368 -0.409844 -4.57285 
1.09947 1.46067 -4.70239 
-0.494054 -0.754422 -3.38727 
-1.65501 0.716183 -5.21388 
0.106255 -0.307538 -4.33725 
1.07445 1.38238 -4.70922 
-1.40866 1.27185 -5.18018 
2.08717 0.283829 -4.48396 
-1.91144 0.0977047 -5.21993 
1.79609 0.857699 -4.54638 
-2.33346 0.243637 -5.31058 
0.767741 -0.369577 -4.21345 
-1.5015 1.13236 -5.18486 
-1.75621 0.782851 -5.23014 
1.96637 -0.223681 -4.48111 
1.00377 -0.791691 -4.13789 
-1.79729 0.859013 -5.2375 
-0.449582 -0.300751 -4.44645 
1.95549 -1.04332 -4.35714 
1.86022 -1.01866 -4.37938 
1.58338 0.0736227 -4.56725 
1.0589 -0.77661 -4.13106 
-0.0152393 -0.607383 -3.30173 
0.289844 0.423016 -4.51594 
0.188306 -0.355265 -4.32151 
-1.34782 0.620263 -5.13295 
0.318499 0.682579 -4.49032 
1.78716 1.08625 -4.55463 
2.19904 0.0549321 -4.45045 
1.0163 1.47688 -4.71187 
1.57114 -0.260992 -4.53539 
1.66666 1.38841 -4.58541 
-1.89677 -0.400945 -5.19624 
2.30858 0.546533 -4.4527 
1.84063 0.850935 -4.54162 
-0.238705 -0.121471 -4.56368 
-1.80022 1.27493 -5.24381 
1.23295 0.962712 -4.65486 
-1.19205 1.28087 -5.1212 
1.10931 -0.479662 -4.14467 
-0.901465 1.47799 -5.08561 
0.0385962 -0.00761415 -4.44583 
1.74768 1.37363 -4.5884 
1.17382 -0.47863 -4.13274 
-1.59358 -0.0922506 -5.18925 
1.30006 1.2953 -4.65115 
1.45254 0.994659 -4.6201 
2.11833 -0.478159 -4.44024 
1.87782 0.372998 -4.51292 
-1.23074 1.16344 -5.13881 
-1.28176 -0.305335 -4.61911 
-1.90847 -0.896503 -5.1623 
-1.60678 1.37112 -5.21629 
0.866876 -0.806246 -4.16233 
1.02666 -0.756738 -4.1335 
-1.42937 1.33442 -5.18379 
0.19437 -0.3661 -4.32054 
0.489789 0.249765 -4.58646 
1.5845 0.0732375 -4.56776 
1.80314 -0.186879 -4.5016 
0.308627 -0.479401 -3.174 
1.04535 -0.84835 -4.12852 
-2.22038 -0.571262 -5.25393 
1.88348 -0.804816 -4.47484 
1.48892 1.20811 -4.61075 
-1.19048 -0.00538142 -4.84041 
-0.113405 1.50337 -4.42116 
-1.91045 0.0124153 -5.20828 
1.92111 -0.545608 -4.46946 
-0.345241 0.406861 -4.63518 
1.9477 0.990904 -4.52903 
1.76421 0.471168 -4.55113 
-1.56179 1.42697 -5.20181 
0.948301 -0.752998 -4.14269 
0.136714 -0.886485 -3.24493 
-1.8117 0.757809 -5.23666 
0.262202 -0.526721 -3.21279 
-0.129484 -0.494642 -4.30654 
1.63542 1.36747 -4.6062 
-2.03781 0.0638267 -5.24445 
1.24853 -0.487297 -4.12653 
-2.23202 -0.919407 -5.21806 
-0.208853 0.871206 -4.61081 
0.79646 0.634058 -4.52029 
2.02268 0.270024 -4.48568 
0.52434 0.115337 -4.57357 
1.66848 -0.20473 -4.52809 
1.46464 -0.382951 -4.55501 
2.21001 0.728694 -4.46838 
0.958487 1.15313 -4.71223 
-1.88519 -0.131586 -5.18953 
-0.000110039 0.244693 -4.57084 
1.5847 -0.167246 -4.5413 
1.94686 -0.757407 -4.46099 
2.08671 0.639477 -4.50335 
0.667363 0.327763 -4.56176 
-1.95743 -0.0291412 -5.2229 
1.21097 0.63232 -4.65055 
1.30853 0.543713 -4.62035 
1.30712 1.14127 -4.64797 
2.20456 0.998923 -4.48144 
1.42197 0.270974 -4.60344 
0.786536 -0.447864 -4.21161 
1.88584 0.396141 -4.5169 
0.618577 0.374313 -4.5665 
0.753272 1.50392 -4.76361 
1.62718 1.2929 -4.59966 
0.195439 0.00296294 -4.51678 
1.8443 0.0805652 -4.52448 
-1.68357 -0.113837 -5.13578 
-0.97623 0.524289 -4.78247 
2.33403 0.861543 -4.46233 
2.12026 0.468207 -4.48611 
1.65738 -0.622511 -4.52075 
0.936687 -0.94563 -4.09749 
1.07332 -0.0597821 -4.3525 
-0.344977 0.113043 -4.62315 
-0.554832 -0.29541 -4.56484 
2.02106 0.430563 -4.50808 
0.136983 -0.885924 -3.24209 
1.96049 -1.0197 -4.36356 
1.25226 -0.918229 -4.09474 
-0.561745 0.361606 -4.78636 
-1.28367 1.79564 -5.17219 
-1.66553 0.0682877 -5.17235 
1.20175 1.10255 -4.66015 
1.63136 -0.0688642 -4.54823 
1.06558 -0.427404 -4.15707 
2.13756 0.410703 -4.48104 
-2.17942 1.50232 -5.33494 
-0.0137589 0.345647 -4.50227 
-1.18193 1.36495 -5.14102 
1.9418 0.982207 -4.53316 
1.62358 0.811289 -4.58477 
1.60397 -0.661567 -4.51833 
1.00124 0.944681 -4.70031 
1.8275 0.493752 -4.52469 
2.19565 -0.571176 -4.4305 
0.984849 1.30959 -4.71063 
1.01897 -0.729401 -4.13964 
-1.19625 -0.00518358 -4.84214 
-2.31887 -0.0622564 -5.28713 
-2.07958 0.77286 -5.2887 
-1.47399 -0.15017 -5.11914 
2.13773 0.283132 -4.44044 
0.0525377 -0.808261 -3.28009 
1.55152 -0.85889 -4.52198 
-1.65187 1.47719 -5.24641 
-1.16055 1.14462 -5.12653 
0.0759853 -0.316198 -4.346 
0.110583 -0.0215286 -4.47609 
2.31396 -0.397316 -4.40466 
1.01129 1.1776 -4.69932 
-2.02151 1.02887 -5.28072 
1.89643 -0.62411 -4.47235 
0.778393 1.47201 -4.75286 
-2.29148 0.0231294 -5.29016 
-1.39176 1.2794 -5.17466 
0.0183276 -0.921021 -3.23246 
1.49352 1.24559 -4.62255 
-2.31474 -0.516799 -5.26133 
0.260531 -0.443155 -3.21807 
1.50268 -0.0747944 -4.56518 
1.68646 -0.850701 -4.49242 
-2.15229 1.19717 -5.31347 
-1.63146 -0.124289 -5.12681 
-1.88201 0.950636 -5.25767 
1.96057 -0.078836 -4.50124 
-1.60854 0.42474 -5.15951 
0.896347 -0.823218 -4.15418 
-1.86618 -0.0659716 -5.20835 
1.94596 0.0475079 -4.50369 
-1.5914 0.524334 -5.17703 
-2.11733 -0.303056 -5.23889 
-2.18332 -0.00506078 -5.26174 
-1.15623 1.2263 -5.12542 
2.12247 1.20463 -4.49643 
-1.28016 0.992101 -5.13147 
1.66119 0.314646 -4.55523 
2.02262 1.34113 -4.52569 
-0.302497 -0.108682 -4.60586 
1.11194 0.0129529 -4.44493 
-1.74953 0.0871757 -5.18687 
1.65805 0.928884 -4.57747 
-1.13614 0.0216187 -4.86996 
0.295117 1.24612 -4.44305 
1.46905 0.325465 -4.57878 
2.23561 -0.174879 -4.42392 
0.386807 -0.456361 -3.27904 
0.185136 0.507856 -4.54004 
0.78022 1.44503 -4.75051 
-0.295938 0.187748 -4.61403 
-2.38665 -0.672024 -5.25844 
1.57437 0.304114 -4.56348 
0.461328 -0.760411 -3.38441 
0.32855 0.308162 -4.10426 
0.915426 0.247174 -4.48263 
1.07744 -0.304532 -4.15702 
-0.408802 1.3912 -4.58203 
1.86643 0.812913 -4.52907 
1.8493 0.885613 -4.54206 
1.61279 -0.390926 -4.53057 
-1.51606 0.144287 -5.13139 
1.53918 0.361285 -4.57189 
1.60648 0.563117 -4.56494 
-2.22323 -0.62843 -5.25093 
-2.02875 0.955875 -5.2851 
-0.273399 -0.78066 -3.34098 
-1.12393 0.943641 -5.10798 
1.81294 -0.4083 -4.50108 
0.31483 -0.922422 -3.20975 
2.04205 1.36174 -4.53665 
1.98823 -0.18555 -4.47428 
-1.83673 1.27101 -5.242 
1.1918 1.29083 -4.67557 
-0.20463 -0.308677 -4.39732 
1.82038 -0.517842 -4.48923 
1.05721 -0.48691 -4.15023 
-1.59018 0.524135 -5.17107 
-1.20748 0.00472231 -4.81796 
1.47551 0.258546 -4.58989 
-2.25196 1.15391 -5.32902 
0.786501 -0.304147 -4.21127 
-1.80538 0.793884 -5.22526 
-0.428075 -0.135303 -4.62651 
1.27887 1.01268 -4.64848 
-1.62267 1.53643 -5.22755 
1.69623 1.39471 -4.58624 
-1.71746 0.24522 -5.19763 
1.54318 -0.0819852 -4.55608 
0.849141 -0.35055 -4.2031 
1.8052 -0.517715 -4.49374 
1.95032 1.12472 -4.5317 
2.12256 -0.0726628 -4.45785 
0.996696 -0.632602 -4.14361 
1.93507 0.494696 -4.51253 
2.2814 -0.629625 -4.4114 
1.62184 -0.744782 -4.50458 
-1.00309 -0.43239 -4.55479 
2.07499 0.61751 -4.49434 
-0.987278 0.437542 -4.78528 
-0.67411 0.19835 -4.76183 
-0.758661 -0.891498 -3.41563 
1.68519 0.27362 -4.55078 
1.73427 -0.222166 -4.51581 
-0.0992783 0.341888 -4.57344 
0.660943 0.686794 -4.54521 
0.218105 0.346321 -4.5431 
-0.704263 0.80785 -4.7955 
1.66563 0.049364 -4.54052 
0.190337 1.46031 -4.44817 
1.34141 1.38943 -4.66206 
1.81159 -0.761724 -4.48137 
2.27511 -0.595756 -4.408 
0.579206 0.954106 -4.57283 
1.43897 1.2524 -4.63163 
-1.65002 0.460664 -5.1813 
2.25864 0.907369 -4.47016 
-1.97398 0.259398 -5.23146 
1.14099 0.414831 -4.25168 
0.943793 -0.303916 -4.17501 
-1.80601 1.28953 -5.24615 
1.75544 -0.804694 -4.49097 
2.06897 0.0519796 -4.4822 
1.89854 -0.569548 -4.47476 
2.1731 0.555229 -4.47044 
0.922824 0.998017 -4.70485 
1.78121 -0.534205 -4.48583 
1.69847 0.470247 -4.56309 
1.73394 1.40849 -4.58896 
-0.39017 1.5003 -4.49119 
1.03052 0.968913 -4.6938 
1.79954 -0.504447 -4.48529 
1.65234 0.84825 -4.59546 
1.11364 1.46431 -4.70305 
2.20815 1.227 -4.48939 
0.360453 -0.153973 -4.47796 
1.70032 1.36603 -4.58944 
1.14647 -0.684285 -4.11754 
2.11484 -0.222945 -4.4451 
