ply
format ascii 1.0
comment VTK generated PLY File
obj_info vtkPolyData points and polygons: vtk4.0
element vertex 1736
property float x
property float y
property float z
element face 0
property list uchar int vertex_indices
end_header
-1.36601 1.73455 -6.87508 
-9.08164 0.0429601 -19.1969 
1.5789 0.321615 -4.19137 
-0.342731 0.0404719 -5.34046 
1.83382 -0.155988 -3.8982 
1.20754 1.42887 -4.5555 
1.86728 1.09005 -3.91318 
1.87655 -0.712397 -3.83453 
0.0673182 -0.191205 -4.98614 
-11.6562 5.09991 -21.1047 
0.209499 1.44841 -4.85914 
-0.0299744 0.475437 -5.17146 
0.245259 0.577235 -4.93068 
2.03415 1.15262 -3.7705 
1.4857 0.712011 -4.25242 
1.80109 0.722873 -3.96807 
2.00798 1.11767 -3.79297 
-9.61918 4.65687 -19.9018 
0.293834 -0.222842 -4.8025 
-9.01422 1.39572 -19.2281 
1.58124 1.00465 -4.19438 
0.968818 -0.205982 -4.19009 
0.933558 -0.443561 -4.02651 
-9.92554 1.20489 -20.0595 
-0.298984 0.994737 -5.45293 
1.79832 0.443527 -3.97282 
-0.270109 -0.369951 -5.11549 
1.88652 0.303062 -3.87909 
0.734862 0.130549 -4.68269 
-0.0771566 0.0449676 -5.06384 
-8.63377 1.48882 -18.9925 
1.29421 0.530971 -4.42976 
-8.24211 -0.623037 -18.5574 
1.36835 0.437078 -4.36126 
-0.72425 -0.485985 -5.52758 
-0.0162187 0.717391 -5.21131 
-7.50584 -0.214049 -18.2003 
1.86682 -0.715661 -3.84376 
-10.7614 3.27616 -20.4779 
-1.50623 1.83751 -7.01374 
1.5287 0.716437 -4.21902 
-7.43337 1.1749 -18.2326 
-11.024 -1.46287 -20.5567 
-1.93554 0.739216 -7.33572 
-9.01534 -0.670612 -19.1514 
1.25576 1.43296 -4.51829 
-8.24368 1.41508 -18.6575 
0.0733695 0.0179975 -5.08298 
-1.95187 -0.271945 -7.29089 
0.433812 1.37327 -4.83284 
0.436062 1.41352 -4.80838 
-6.98653 -1.38174 -17.8341 
1.90843 0.514532 -3.86359 
1.86746 1.0907 -3.91457 
-7.24918 1.67278 -18.1234 
-7.21485 0.0431355 -17.9976 
0.930863 1.43336 -4.79819 
-10.4112 2.06773 -20.1164 
-0.0965243 0.0718304 -5.0719 
1.87584 -0.713357 -3.83286 
-1.36416 -0.407629 -6.12187 
0.432508 1.38069 -4.82918 
-0.378502 1.12944 -5.41304 
-0.961118 -0.750706 -4.1862 
-0.0595531 1.10148 -5.24743 
-9.39805 5.27686 -19.4523 
-0.195575 -0.37346 -5.06867 
-0.0947083 0.136938 -5.11391 
-11.0783 2.02026 -20.2649 
-7.79872 -1.39565 -18.3717 
1.48511 -0.32587 -4.22624 
-7.48707 -0.613474 -18.1075 
1.89738 -0.912112 -3.82327 
-1.92387 2.06681 -7.38676 
-0.454024 1.73711 -5.32395 
0.558666 0.198998 -4.73847 
-8.2502 0.733116 -18.6366 
0.218022 -0.224573 -4.87977 
1.93556 -0.275241 -3.78887 
-7.84943 0.386615 -18.3055 
1.73649 1.09239 -4.04941 
0.617445 0.580697 -4.78624 
0.985116 -0.305399 -4.00802 
-9.90402 0.548145 -19.9998 
-2.19501 1.1328 -7.59339 
-0.51144 -0.389792 -5.31525 
1.54256 0.215149 -4.22308 
-7.22026 -0.288507 -17.9953 
-0.0558555 -0.581562 -4.83214 
1.75538 0.0926721 -3.99898 
-11.1383 2.07341 -20.2129 
0.451053 0.486018 -4.94775 
0.692007 -0.449772 -4.26284 
-1.18289 -0.322668 -6.06962 
-11.122 1.91594 -20.5303 
-0.414648 0.463651 -5.54039 
1.73305 -0.546786 -3.97403 
-1.16328 -0.104208 -6.17867 
-1.70037 -0.0548189 -7.09159 
-1.996 2.59408 -7.47678 
0.105042 -0.18989 -5.00234 
1.13103 0.727107 -4.58737 
-11.1543 0.455273 -20.5024 
0.13878 -0.486178 -4.76052 
1.35018 1.11308 -4.40058 
-7.84163 -1.01189 -18.3491 
-7.84119 -0.996382 -18.3635 
-0.117199 0.704178 -5.27657 
0.672028 -0.410855 -4.27221 
1.57924 0.938984 -4.20896 
-0.63186 0.575438 -5.92788 
0.908095 -0.119248 -4.34799 
1.22748 1.43562 -4.53224 
-0.166435 0.111374 -5.07478 
-9.77491 3.56068 -19.6974 
0.460197 -0.377984 -4.47146 
1.72308 1.07214 -4.06156 
1.20288 1.41704 -4.5494 
-1.18635 -0.210681 -6.08942 
0.135392 0.23342 -5.05245 
-0.870077 -0.39684 -5.6628 
-0.388526 0.414209 -5.52302 
-8.61548 -0.28429 -18.8049 
0.0452713 0.0104585 -5.08652 
1.67856 0.530317 -4.0858 
-1.8706 0.896917 -7.28153 
-1.64396 0.0571336 -7.06053 
1.74727 0.939671 -4.03313 
-9.24595 1.8535 -19.4583 
-0.48496 -0.123262 -5.59427 
0.103987 -0.190596 -5.01178 
-9.17807 1.98606 -19.4506 
-8.25942 1.40712 -18.6608 
-1.24432 -0.515238 -5.98984 
-1.93801 0.909872 -7.34395 
-0.635701 0.967161 -5.90013 
1.70878 -0.102938 -4.01954 
1.11453 0.91198 -4.60954 
1.87502 0.963832 -3.90722 
1.26161 1.42288 -4.50707 
0.504335 0.767027 -4.89927 
-0.36757 0.583144 -5.47354 
1.21647 1.36471 -4.54097 
1.68577 -0.203801 -4.05237 
-8.85054 -0.913228 -18.9969 
1.49347 0.93559 -4.2747 
-1.90568 -0.238601 -7.25539 
0.919316 -0.0444825 -4.34006 
0.844765 -0.361609 -4.11047 
1.60843 0.741001 -4.16073 
-9.78351 -1.59749 -19.5832 
-0.749917 0.472177 -6.02272 
1.67591 0.456606 -4.0944 
-10.7762 -0.938139 -20.2983 
-10.8785 2.73565 -20.9939 
-0.196102 0.993455 -5.35536 
-2.01857 2.62544 -7.49368 
0.775452 -0.971144 -4.15395 
-11.5406 5.74392 -20.9233 
1.81592 -0.714757 -3.89391 
0.571043 -0.34438 -4.37289 
1.19948 1.06101 -4.54809 
1.46722 -0.180849 -4.23649 
-9.01935 0.048613 -19.1039 
0.233995 1.06196 -4.91022 
1.63689 0.754768 -4.12489 
0.0939611 -0.158622 -5.05417 
0.616561 -1.21129 -4.19386 
-0.627645 -0.0983149 -5.89705 
-9.22249 1.679 -19.3559 
1.73954 0.265168 -4.00906 
1.52354 0.582432 -4.22925 
-1.50599 -0.546213 -4.58465 
1.26644 1.33498 -4.50356 
-0.982776 1.832 -6.55287 
-9.48601 5.23667 -19.7827 
1.79849 0.721829 -3.9655 
1.21671 1.30389 -4.53686 
1.87361 0.922616 -3.91179 
-8.62262 1.06133 -18.8359 
-7.48944 1.40644 -18.1748 
-0.00227044 0.0652706 -5.16327 
-0.403831 1.36256 -5.37739 
0.547276 0.47497 -4.86612 
0.90543 -0.453582 -4.0603 
1.48442 0.742543 -4.27064 
1.82257 1.11597 -3.95309 
1.3301 0.563737 -4.39451 
0.0631855 -0.188463 -4.9946 
-0.887993 -0.505379 -5.67995 
0.96082 -0.0732743 -4.29803 
1.88798 0.937211 -3.89229 
-11.1662 0.861774 -20.6306 
1.9835 0.540498 -3.7977 
-11.1582 -0.586319 -20.4763 
0.986443 -0.0983284 -4.26649 
1.29029 1.12252 -4.46709 
-2.02304 1.58467 -7.46236 
0.874803 -0.451102 -4.09082 
-1.49906 -1.07256 -4.62356 
0.207151 0.349793 -4.987 
-1.23774 0.217281 -6.27954 
-1.79888 0.529166 -7.21503 
0.923006 -0.435097 -4.04428 
-1.20107 -0.0576985 -6.25001 
-1.3429 1.72113 -6.85058 
0.320682 1.32595 -4.87111 
-10.2282 1.95836 -20.0781 
1.64703 -0.719112 -4.06571 
1.66324 -0.217052 -4.06936 
0.108487 -0.0425967 -5.00652 
-7.8577 1.7449 -18.4453 
-0.445496 -0.35983 -5.28846 
-0.0715588 -0.599197 -4.84104 
-0.50197 -0.614357 -5.21718 
-0.38381 1.06678 -5.4597 
-1.76254 1.13414 -7.20458 
-7.03403 -1.00267 -17.84 
1.49199 0.576271 -4.245 
0.803094 -0.473 -4.15678 
-8.63003 1.68077 -18.8472 
0.106789 -0.0424235 -5.04796 
-1.22255 1.92295 -6.76284 
-8.77317 1.71822 -19.1913 
1.49043 -0.416663 -4.22514 
1.94916 -0.411374 -3.79687 
1.5032 0.414806 -4.22957 
-7.48939 1.39599 -18.1357 
-0.0696526 0.111421 -5.11196 
-0.182911 0.0198462 -5.08518 
1.16229 1.06386 -4.56551 
-1.2703 0.70611 -6.73307 
-0.410027 1.75894 -5.26498 
-10.2997 5.737 -20.2664 
0.669129 -0.387268 -4.27257 
-8.60525 0.844941 -19.0113 
-0.0286911 -0.560191 -4.80405 
-7.2906 1.9405 -18.0988 
-11.0425 -0.58575 -20.4538 
0.583132 -0.447944 -4.35179 
-1.38998 1.5796 -6.91296 
-0.0157617 1.33896 -5.0463 
-11.1232 2.37945 -19.9499 
-0.623536 0.497638 -5.90908 
-10.2371 4.62943 -20.3143 
1.50223 0.740052 -4.25798 
1.25229 1.10108 -4.50147 
1.4992 -0.704926 -4.18879 
-7.21887 0.72219 -18.0354 
-10.4054 2.04228 -20.1578 
-1.24602 1.91997 -6.77363 
1.01709 0.73666 -4.69547 
0.633062 -0.0743204 -4.76562 
1.63116 -0.851912 -4.06946 
-9.87156 7.12579 -20.2171 
0.462769 -0.365206 -4.46804 
0.679842 -0.441317 -4.26703 
0.942821 1.45906 -4.78861 
-1.91201 0.335576 -7.3255 
-1.81011 -0.264459 -7.20212 
-0.170175 0.0886371 -5.06478 
1.03541 -0.138839 -4.22811 
1.79296 0.69674 -3.97875 
1.63936 0.545047 -4.1329 
1.7088 0.550604 -4.04758 
-0.979881 -0.366379 -6.02597 
-8.60391 2.62736 -18.9673 
-1.55643 2.46983 -7.08511 
0.114951 -0.0238388 -5.05729 
-11.3347 4.66646 -20.8624 
-1.6987 0.698999 -7.13614 
0.0223422 -0.462066 -4.85998 
-6.9262 1.9389 -18.0094 
1.97026 0.893117 -3.81428 
0.676709 0.173337 -4.72817 
-1.80524 2.60851 -7.31599 
0.226981 0.418582 -4.97823 
0.624413 1.40041 -4.61078 
1.60353 -0.00962153 -4.1283 
-9.6988 1.72 -19.9013 
-9.00784 0.694089 -19.1838 
1.94691 1.29172 -3.86535 
0.613518 0.917188 -4.64119 
0.101418 -0.0624818 -5.02461 
1.36237 1.1215 -4.38692 
-7.30301 1.92193 -18.1669 
0.376737 -0.0949131 -4.86582 
1.68034 1.21432 -4.09817 
-0.207519 0.959027 -5.37817 
-10.085 1.85691 -19.9732 
1.51687 -0.675199 -4.17934 
1.7914 -1.05871 -3.84696 
-11.6579 4.95801 -21.086 
1.82025 -0.412536 -3.92337 
0.313607 -0.238064 -4.79362 
-0.0614467 0.017147 -5.07088 
-1.12694 -0.168424 -6.1605 
1.44222 -0.162307 -4.27306 
-1.5411 1.73921 -7.04179 
1.43091 0.438349 -4.30608 
-1.26282 1.39113 -6.77057 
0.244507 1.12715 -4.86236 
1.81506 -0.398548 -3.90803 
-1.99415 0.283911 -7.36984 
1.47377 -0.157491 -4.23588 
-11.1405 1.80124 -20.5774 
-9.00387 -0.627468 -19.053 
-0.19979 0.0759348 -5.07028 
-1.12752 -0.172978 -6.18137 
-1.97775 2.4873 -7.45594 
1.59522 -0.0606202 -4.13195 
1.63415 0.75759 -4.12402 
1.96998 -0.111145 -3.78014 
-0.347151 1.73964 -5.24027 
1.29936 0.0944069 -4.40802 
-9.29346 3.17968 -19.4062 
-0.826217 1.32899 -5.85714 
0.0351561 0.459323 -5.12823 
1.81779 1.09584 -3.97673 
1.47414 -1.10611 -4.09898 
1.826 -0.277192 -3.88565 
1.93603 0.444948 -3.84113 
1.53846 0.315674 -4.22366 
-1.6024 1.35931 -7.07281 
-7.46239 -0.0118006 -18.12 
-8.19332 0.455161 -18.7655 
1.68371 -0.718475 -4.02567 
-0.459948 0.178036 -5.57582 
1.90157 1.29284 -3.89779 
1.68952 0.518066 -4.07552 
-1.62159 1.37792 -7.0697 
0.281367 0.222471 -4.9184 
1.80601 -0.043752 -3.92794 
-1.04707 -0.369215 -5.8173 
-10.4993 5.298 -20.512 
1.80871 -0.296696 -3.90766 
-10.8557 3.08009 -20.6166 
0.920938 -0.452144 -4.02159 
1.52473 -0.672274 -4.17179 
-1.68641 2.45467 -7.20558 
-10.8036 1.9909 -20.3537 
0.0125141 -0.0172268 -5.0871 
0.0380213 0.478781 -5.1252 
1.4403 0.103323 -4.27555 
1.21498 1.09507 -4.52815 
0.233954 0.394872 -4.97035 
-0.47781 -0.591027 -5.20515 
-1.69406 0.117102 -7.11984 
0.29401 0.806874 -4.90565 
-0.00991076 -0.00650745 -5.07446 
-9.03484 0.734657 -19.1654 
1.80307 0.682102 -3.97388 
1.40672 0.416812 -4.33019 
1.76373 0.545372 -4.00964 
-0.156049 0.165246 -5.10369 
0.642403 0.518506 -4.76885 
0.213767 -0.273419 -4.86838 
-7.54618 -0.629593 -18.1498 
-0.329175 -0.41047 -5.18269 
1.58279 0.739096 -4.18427 
-7.39132 1.77224 -18.0964 
1.42209 1.33219 -4.351 
1.64683 -0.718203 -4.06377 
-7.33361 -0.225207 -18.0208 
-0.0164202 0.41201 -5.16646 
-8.17855 0.515379 -18.3963 
-11.0883 2.30451 -19.9147 
-2.02929 -0.472877 -7.36326 
-9.34174 -0.988339 -19.3836 
0.293708 0.205099 -4.89965 
-0.716472 -0.365303 -5.5435 
-9.39903 -1.01777 -19.3768 
-0.261461 1.15062 -5.41233 
1.16236 1.06079 -4.56836 
1.91461 -0.422151 -3.81154 
-10.1728 -1.39162 -19.8774 
-0.487899 1.75741 -5.35618 
0.0844202 1.2148 -4.98643 
-1.22267 1.37188 -6.74563 
0.667653 0.199771 -4.72525 
-0.546436 -0.498483 -5.37248 
-7.88936 1.68475 -18.4192 
1.37046 1.23048 -4.38749 
-6.94067 0.700882 -18.0506 
1.50695 0.932759 -4.25918 
1.56898 1.19792 -4.20612 
-9.94355 3.29996 -20.0922 
-0.151654 0.0817084 -5.07098 
0.983603 -0.546565 -3.89862 
1.22016 0.712472 -4.51147 
-1.53114 1.83736 -7.01452 
1.97127 -0.476638 -3.761 
-0.0625478 0.21843 -5.25626 
-8.98329 -0.872355 -19.1937 
-0.346352 -0.584218 -5.0858 
2.00269 0.694946 -3.78569 
1.26714 1.33435 -4.49824 
-1.10558 1.11831 -6.63199 
-1.62032 0.0534295 -7.00546 
1.8939 -0.120787 -3.84287 
-1.94451 2.07613 -7.42384 
-11.1451 -0.236582 -20.4638 
1.01762 -0.202591 -4.15248 
-1.49209 1.56711 -6.97115 
-9.35211 2.8385 -19.5324 
0.561091 -0.496488 -4.37519 
-1.59812 0.686075 -7.03394 
1.74731 0.307771 -4.00477 
1.73305 0.932522 -4.04672 
1.79209 0.300377 -3.97116 
-0.418949 1.34796 -5.38156 
-1.67285 -0.0627574 -7.07396 
1.98534 -0.734775 -3.73949 
0.683276 0.750891 -4.70851 
-10.6457 -1.36302 -20.363 
-8.3744 -0.559518 -18.5977 
-11.1189 0.397415 -20.7459 
0.105199 -0.225374 -4.9739 
-0.176535 0.0627797 -5.06731 
-11.1817 -0.19472 -20.672 
0.42211 -0.377334 -4.50387 
0.902959 1.54124 -4.82803 
1.87241 -0.582162 -3.83791 
1.50155 0.413844 -4.22457 
-1.77486 0.27432 -7.1873 
1.82869 -0.701795 -3.87528 
-0.0331566 0.13811 -5.13733 
-10.0938 4.76556 -20.2565 
1.34045 0.908469 -4.39871 
0.637255 0.474336 -4.78568 
0.668561 -0.44695 -4.27316 
1.80462 0.709826 -3.97076 
0.0133435 -0.403437 -4.87411 
-8.98462 1.18796 -19.2529 
1.29918 0.0943575 -4.40869 
-9.66281 5.0038 -20.0334 
1.90494 0.683641 -3.87025 
-10.1792 -0.999033 -19.9861 
-8.30892 0.71718 -18.6704 
1.83964 -0.711091 -3.86791 
-0.36097 0.527952 -5.48575 
-10.2828 5.96334 -20.3309 
1.97113 -0.476912 -3.76049 
0.530556 -0.443171 -4.39917 
1.56304 1.09333 -4.21908 
-2.00924 -0.0548492 -7.33106 
1.52981 0.564919 -4.2254 
1.33557 0.458717 -4.39622 
0.22417 0.0743976 -4.97205 
-10.881 3.01899 -21.1319 
1.79547 -0.210261 -3.94931 
1.48049 0.109234 -4.254 
-7.83656 1.49749 -18.6449 
-1.35555 1.52572 -6.84994 
-1.93981 -0.316739 -7.2979 
1.81086 -0.549702 -3.90488 
-1.28554 1.37319 -6.80862 
0.906379 0.433525 -4.19023 
1.72338 -0.422566 -4.0023 
-0.611378 0.418749 -5.89201 
1.53372 -0.692515 -4.16618 
1.82943 0.925849 -3.94834 
1.66867 -0.139614 -4.05631 
-0.374368 1.75429 -5.25349 
-9.92152 5.27277 -20.1993 
-0.26125 1.15408 -5.42218 
1.29065 1.53907 -4.49605 
-1.67965 1.67408 -7.15501 
-0.650937 0.382843 -5.91906 
0.619567 -1.22468 -4.09583 
2.02574 1.14113 -3.77779 
0.0665945 -0.261889 -4.9222 
-0.202238 -0.494253 -5.06454 
-1.19865 -0.391044 -5.94717 
-0.404848 -0.553156 -5.23543 
-0.559013 -0.395963 -5.38387 
-11.0957 0.81272 -20.5834 
1.48258 0.845402 -4.26936 
1.6977 0.539262 -4.06187 
-8.62876 0.395256 -18.8566 
1.53574 -0.418974 -4.16674 
-1.43383 -0.770593 -4.5968 
-0.0330868 -0.471606 -4.90907 
-9.04417 0.673196 -19.2386 
-10.8042 2.02715 -20.5704 
-8.46943 -1.44694 -18.7364 
1.48243 0.846098 -4.27012 
-0.182403 0.0739751 -5.06906 
-1.37912 1.16176 -6.87396 
0.13065 0.0597999 -5.05305 
-0.122227 0.0402433 -5.07127 
-1.16048 -0.0721919 -6.18763 
1.53852 1.09677 -4.23882 
0.666725 0.19995 -4.72532 
1.80138 -0.712613 -3.90071 
-9.03788 0.0957435 -19.257 
1.50654 1.09272 -4.26773 
1.5693 0.452479 -4.18328 
0.606793 -0.462577 -4.3069 
-0.844335 0.470598 -6.07491 
-9.40175 -1.45573 -19.3362 
-0.296725 -0.106519 -5.39071 
1.69505 -0.112687 -4.02859 
1.85414 -0.538947 -3.8612 
0.913463 -0.103533 -4.353 
-0.654661 0.236843 -5.85457 
-8.24512 -0.174052 -18.5515 
-9.19439 1.95138 -19.4403 
0.80094 1.57579 -4.93542 
1.81025 1.10328 -3.98021 
1.32199 1.11152 -4.42871 
1.19429 1.41336 -4.55566 
-0.827081 -0.070007 -6.06488 
1.94091 -0.425834 -3.79226 
-5.33637 -0.329526 -12.3959 
-1.56868 1.39379 -7.06196 
0.348414 -0.396743 -4.57519 
-11.0094 2.14119 -20.5294 
1.33735 0.442778 -4.38832 
1.71897 0.737825 -4.04654 
-1.77636 1.3079 -7.2275 
1.74881 -0.552622 -3.96662 
-1.86266 -0.265001 -7.23635 
-7.53717 0.711042 -18.1659 
1.42892 -0.313789 -4.27362 
0.933739 -0.515426 -4.02143 
-10.1081 -1.48695 -19.8582 
1.6196 1.0926 -4.16157 
1.34941 0.913174 -4.40111 
1.90745 0.725449 -3.88124 
-1.37313 1.56923 -6.88268 
-1.86386 0.733976 -7.27567 
1.88839 -0.898965 -3.83558 
-0.0361337 0.136387 -5.12667 
-1.31672 2.00171 -6.8398 
1.79805 -0.404621 -3.92306 
-10.2239 -0.990458 -19.8891 
0.230409 1.35731 -4.82995 
-1.099 -0.366962 -5.85517 
-8.64835 -0.929961 -18.9851 
1.56922 0.453285 -4.18729 
-1.7757 -0.285957 -7.17554 
-8.26199 -0.183834 -18.6169 
-8.60423 0.373435 -18.7266 
1.22917 0.733891 -4.50209 
-8.58953 1.74711 -18.8917 
-0.0183039 0.023274 -5.06919 
-0.625975 0.949013 -5.8964 
1.74702 1.09955 -4.04211 
-0.376263 1.57382 -5.41019 
-1.41711 1.58476 -6.90961 
1.28447 0.928968 -4.45329 
-1.72871 1.32939 -7.26293 
2.02289 -0.433375 -3.72335 
-7.42354 0.52828 -18.2229 
-7.47358 0.662571 -18.1743 
-9.81684 5.96782 -19.9003 
-0.677016 1.72289 -5.6303 
-8.82654 2.13824 -19.1731 
-0.104242 0.662101 -5.26775 
0.0668803 1.32245 -4.9659 
-10.6886 1.34459 -20.1726 
1.51328 0.691012 -4.23879 
2.01666 -0.660161 -3.71538 
0.933335 -0.371733 -4.02624 
1.59602 -0.525253 -4.11471 
-2.14477 -0.0889653 -7.49083 
1.60989 -0.527048 -4.0983 
1.33646 0.460566 -4.39639 
1.56457 0.200818 -4.1836 
1.46774 0.744667 -4.28283 
-0.241013 0.892762 -5.40542 
1.83588 1.21067 -3.95174 
-9.39454 -1.45075 -19.3107 
0.478936 -0.0228917 -4.90653 
-1.89876 0.896395 -7.32886 
1.68581 1.2903 -4.10322 
1.4606 -1.09829 -4.12176 
-1.01396 -0.253684 -6.17373 
1.50295 0.425189 -4.23902 
0.883126 -0.333024 -4.0891 
-1.35551 1.96303 -6.86454 
-1.67926 1.67952 -7.15692 
-0.411058 0.233812 -5.53178 
0.979445 0.211345 -4.30758 
1.43145 0.0790416 -4.28819 
-1.47454 1.77933 -6.97438 
0.779879 1.65186 -4.94518 
0.12542 -0.383885 -4.77343 
1.47528 -0.142259 -4.23558 
-1.70136 0.920643 -7.14127 
1.63565 -0.490992 -4.07733 
1.47903 -0.293604 -4.22266 
1.95629 -0.20031 -3.79063 
1.8365 1.21284 -3.95483 
-1.68532 1.73083 -7.16276 
1.63256 -0.553984 -4.0839 
1.73665 0.300147 -4.0163 
1.66278 -0.713779 -4.05456 
-0.90374 -0.487316 -5.69023 
0.969457 -0.294073 -3.99502 
0.546005 0.197725 -4.74847 
-9.25509 3.00612 -19.4745 
1.38915 0.0910498 -4.31782 
1.79074 -1.03912 -3.90812 
1.9984 -0.0653591 -3.76552 
0.477009 -0.0194846 -4.90011 
1.88697 0.981662 -3.90243 
1.77523 -0.924518 -3.94056 
-1.04419 1.68765 -6.5933 
-8.98706 -0.842187 -19.2289 
1.59401 -0.0591689 -4.13612 
1.68534 -0.739554 -4.0233 
2.03419 1.24202 -3.77208 
0.454593 1.42697 -4.79889 
1.89437 -0.124663 -3.86555 
-0.0698818 -0.138517 -5.18258 
1.7285 0.722687 -4.04051 
1.78767 -0.357601 -3.93592 
-7.09236 3.15915 -18.0827 
1.98853 -0.197217 -3.76219 
-0.620619 0.214324 -5.84908 
1.44268 -0.321769 -4.26535 
0.790061 -0.370646 -4.16771 
0.564655 0.751324 -4.85203 
1.68692 1.10336 -4.08674 
-8.24355 0.0347438 -18.5074 
-8.56108 2.79815 -19.0483 
1.39198 1.52096 -4.38924 
1.34114 0.906931 -4.38845 
-1.08176 1.12391 -6.63138 
-1.96546 1.58489 -7.40928 
-6.9409 0.512339 -18.0326 
1.33372 0.907113 -4.4102 
1.39932 0.328311 -4.33706 
1.52049 -0.193073 -4.2002 
1.0936 1.58737 -4.6652 
0.804193 1.57418 -4.93393 
-0.278287 0.835394 -5.43176 
1.53176 0.422193 -4.20717 
1.35926 1.13654 -4.39442 
0.806002 -1.02896 -4.09868 
-1.38736 0.741578 -6.87053 
1.95723 0.576694 -3.81661 
-7.48646 0.512783 -18.0529 
1.48933 -0.184315 -4.21706 
1.87414 1.06676 -3.90741 
-1.65955 -0.009952 -7.07445 
0.373702 -0.210042 -4.90652 
1.56694 0.0715181 -4.1595 
-10.3792 5.62218 -20.233 
-1.76791 0.0581565 -7.14772 
-10.7805 1.71384 -20.4569 
1.35221 1.46894 -4.41867 
-0.0493818 0.218127 -5.23728 
2.00531 -0.729843 -3.73065 
-0.410594 1.14593 -5.40485 
1.94528 -0.193619 -3.79538 
0.193064 0.56426 -4.9674 
0.20614 0.0412126 -4.97701 
-11.0369 -0.95534 -20.5117 
-8.61968 2.50468 -19.0575 
0.457081 0.126008 -4.92085 
-0.879323 0.331212 -6.10361 
-1.1392 1.71773 -6.6756 
-1.80695 1.16397 -7.25926 
-0.0321339 0.140884 -5.13908 
1.94991 0.807146 -3.83526 
1.78178 0.452315 -3.9807 
0.535622 0.391393 -4.8633 
1.4774 0.576048 -4.2358 
-7.26612 1.0506 -18.0983 
1.88694 0.617555 -3.88326 
1.65453 -0.133927 -4.06761 
-1.19635 -0.898283 -4.38535 
-1.7189 2.03649 -7.2115 
1.8313 -0.187702 -3.89738 
-1.44929 2.2242 -6.96944 
-0.300717 -0.134404 -5.38927 
-1.8026 1.28347 -7.2443 
1.11446 0.755108 -4.61369 
1.60539 0.933226 -4.16082 
1.43424 -0.573583 -4.2635 
1.41863 1.43197 -4.35557 
-6.95364 2.72242 -18.0039 
1.30824 0.742828 -4.43136 
-11.0017 -1.00662 -20.3212 
1.84064 1.29062 -3.96256 
0.250835 -0.454287 -4.65227 
1.56461 0.406802 -4.18235 
1.76614 0.452366 -3.99845 
1.56391 0.967157 -4.20759 
-1.74922 1.84352 -7.21753 
-7.08996 -0.637021 -17.7492 
-0.409882 0.257723 -5.5322 
1.74866 -0.572342 -3.96619 
1.48334 1.45066 -4.30315 
1.75185 1.0747 -4.04004 
-0.779939 1.16247 -5.89611 
0.443919 -0.385072 -4.49173 
1.43371 -0.574097 -4.26454 
1.545 -0.934947 -4.14416 
0.590777 0.160112 -4.71753 
-0.14202 0.733683 -5.28564 
1.80106 -1.03194 -3.89259 
-8.48985 1.5018 -18.9809 
1.49175 0.732468 -4.26632 
-0.638285 0.17142 -5.84012 
1.69147 -0.29564 -4.04252 
-1.5252 2.44562 -7.0644 
1.75983 0.252583 -3.99081 
0.218778 1.29864 -4.87201 
-9.33971 -1.47528 -19.449 
1.11118 0.883599 -4.63027 
-1.73568 0.277256 -7.16674 
1.72073 0.959651 -4.04823 
-7.881 0.153774 -18.392 
0.82493 0.152641 -4.59044 
1.93411 0.37449 -3.83981 
1.79248 0.716667 -3.97828 
-10.7258 1.62164 -20.239 
1.81434 1.16954 -3.97179 
1.90832 0.483316 -3.86745 
-0.0647165 -0.458697 -4.9389 
1.94614 0.808732 -3.83454 
1.6831 -0.190602 -4.04682 
1.80976 -0.16475 -3.9083 
-9.88889 1.61396 -19.854 
-1.6017 1.0222 -7.05815 
0.732599 -0.966465 -4.17674 
0.174223 0.79624 -4.98863 
-1.92479 1.12895 -7.34634 
-0.60577 0.229335 -5.85855 
0.98625 -0.55354 -3.8938 
1.37225 0.416898 -4.35984 
1.9058 -0.467427 -3.81611 
-0.364995 -0.418565 -5.15344 
1.71184 0.923407 -4.05855 
1.3913 -1.12001 -4.16524 
-0.643718 0.0854361 -5.89977 
0.448168 -0.243363 -4.86089 
1.597 0.125388 -4.12857 
0.178848 1.37441 -4.86902 
1.87744 0.726589 -3.90722 
1.37726 -0.467099 -4.32202 
1.98521 -0.195815 -3.75405 
1.75331 -0.324314 -3.96468 
0.727793 -0.564653 -4.1154 
1.63488 0.50359 -4.10638 
1.78427 -0.416867 -3.93623 
0.603189 0.650788 -4.77645 
1.57422 -1.11468 -3.99213 
-0.210451 1.24964 -5.37876 
0.126118 -0.126878 -5.04835 
1.87352 -0.429848 -3.85059 
1.64729 -0.551691 -4.06814 
1.73581 -0.208297 -4.01289 
-9.28645 -0.773978 -19.2573 
-0.515818 1.74918 -5.38111 
0.914015 -0.102552 -4.35478 
-9.11212 -0.0479066 -19.2437 
1.8203 1.0974 -3.96429 
-10.6024 -0.678325 -20.1523 
-0.640804 0.211207 -5.84163 
1.10571 0.903293 -4.62291 
1.81481 1.25956 -3.97251 
1.26664 0.628154 -4.46583 
2.02848 0.819489 -3.75845 
1.43839 -0.287933 -4.26022 
-0.851672 0.599445 -6.07653 
-1.42031 1.61292 -6.9224 
1.56652 -0.738255 -4.13923 
1.2775 1.27863 -4.4763 
-1.67949 2.26457 -7.18012 
-10.4447 -0.806298 -20.1198 
-10.1349 6.60369 -20.0659 
1.88127 1.10008 -3.90481 
1.44324 -0.322179 -4.26811 
-0.874367 0.330446 -6.09667 
1.4333 1.40695 -4.33911 
1.40417 -0.641102 -4.28228 
1.97182 0.660971 -3.80861 
1.79278 -0.31459 -3.93544 
-0.324519 0.372031 -5.45917 
-8.65588 0.15132 -18.8999 
2.03009 -0.225365 -3.71779 
1.53567 0.329712 -4.20966 
1.94165 -0.187137 -3.79604 
1.03254 -0.219567 -4.13457 
1.63096 -0.708628 -4.08195 
-1.95375 1.40963 -7.37673 
1.95907 0.887698 -3.82225 
-1.64402 0.724104 -7.08451 
-0.162461 0.0585281 -5.07268 
0.0243588 0.570951 -5.16545 
-0.00187717 0.578257 -5.17455 
1.80583 -0.311024 -3.92823 
-8.29906 -0.157092 -18.6154 
1.35435 0.89005 -4.39651 
0.950823 1.42878 -4.79162 
-7.2196 -0.62675 -17.9743 
0.686149 0.18739 -4.72602 
1.82023 0.642595 -3.94334 
-11.374 5.30198 -20.9693 
1.83347 -0.283956 -3.88565 
1.65621 0.855742 -4.11376 
1.07277 -0.0981482 -4.1941 
1.64864 0.965205 -4.12025 
-2.12986 0.10826 -7.47001 
1.18283 1.46713 -4.57732 
0.461814 0.302587 -4.93053 
1.66529 -0.897726 -4.05057 
1.67336 0.829489 -4.09902 
-1.34437 1.89719 -6.86107 
-0.271635 0.832653 -5.44319 
0.0666805 -0.0865816 -5.05132 
0.892151 -1.14756 -3.94956 
1.58409 1.03632 -4.19068 
1.02139 1.44925 -4.72638 
0.819513 -0.554547 -4.0376 
0.637049 0.379738 -4.7797 
-11.0111 0.812878 -20.6109 
-1.96647 -0.337501 -7.31697 
1.67645 -0.0642583 -4.05677 
-10.9941 1.74124 -20.5862 
1.89225 0.462565 -3.88328 
1.80494 -0.250195 -3.92501 
-0.193311 -0.327801 -5.05705 
0.833834 1.47198 -4.88721 
1.42423 1.22039 -4.33702 
-1.5766 1.5486 -7.05102 
1.51887 0.571248 -4.23585 
1.92992 0.722486 -3.86315 
0.681863 -0.890658 -4.22652 
-2.0311 1.42162 -7.44631 
-8.67884 4.34947 -19.1083 
-1.0021 -0.803331 -4.21508 
1.61917 1.09326 -4.1644 
-10.1932 -1.04562 -19.888 
1.23014 1.30785 -4.53495 
1.44759 -0.398145 -4.24912 
-9.02157 2.00447 -19.2593 
0.541222 1.0884 -4.84828 
-0.687848 0.150869 -5.852 
1.73598 1.3283 -4.06468 
0.755537 -0.842162 -4.16417 
0.830608 0.0555762 -4.57097 
1.35564 0.773567 -4.39413 
0.842702 -0.0523134 -4.57526 
-9.74525 2.20784 -19.6229 
1.88934 -0.0592842 -3.84793 
-9.03125 -0.185254 -19.1081 
-0.0116095 1.56975 -5.08535 
1.94364 0.890259 -3.84217 
-0.232616 -0.463149 -5.09418 
-10.3755 2.12136 -19.967 
1.84265 0.532319 -3.93276 
1.50083 0.667947 -4.24511 
-0.918125 1.8234 -6.49186 
1.54236 -0.615354 -4.16978 
-0.0598849 -0.0278959 -5.08681 
1.99337 0.0570757 -3.7679 
1.52467 0.0432059 -4.19706 
0.116189 0.0113402 -5.05813 
1.41968 1.4342 -4.3624 
1.40753 0.0921406 -4.3032 
1.6474 -0.550992 -4.06917 
1.04304 1.54731 -4.71268 
-0.903501 0.283676 -6.11389 
-0.4199 0.561623 -5.52045 
-8.93719 2.49433 -19.3138 
0.590153 0.437714 -4.82894 
1.95805 -0.147876 -3.78649 
0.657505 -0.546783 -4.27269 
-1.211 -0.00256697 -6.2783 
-2.04659 -0.667249 -7.36857 
-11.1944 3.10769 -20.2348 
1.68619 -0.111216 -4.04428 
-8.91145 1.90869 -19.2697 
-0.366851 0.415249 -5.49473 
0.970556 -1.01041 -3.9648 
1.89639 0.67429 -3.87773 
1.64211 0.0753856 -4.081 
0.952333 -1.14357 -3.89122 
1.5495 0.557528 -4.20407 
1.37457 0.0813528 -4.33017 
-1.66653 0.0828017 -7.06554 
1.59813 0.000599724 -4.1336 
1.8965 0.742209 -3.88233 
1.11829 1.53678 -4.64343 
1.67968 1.22744 -4.10207 
0.892253 -1.14783 -3.94971 
-0.331826 -0.530314 -3.70782 
0.606994 -0.446649 -4.32633 
-1.41044 1.38559 -6.90073 
-9.97255 4.51574 -20.2356 
1.93436 0.884255 -3.8334 
1.80742 0.596577 -3.9583 
-1.59867 -0.0940898 -6.98841 
1.90413 -0.511291 -3.80379 
-1.37143 1.70584 -6.87771 
-11.2337 1.70786 -21.1005 
1.64434 -0.430245 -4.07035 
1.78956 0.661962 -3.98237 
-0.190858 1.752 -5.06631 
1.41856 0.40674 -4.3154 
0.0323737 0.44061 -5.13122 
1.98854 0.951745 -3.79677 
1.70915 0.959502 -4.05061 
-7.22451 -0.61227 -17.9889 
0.854937 -0.31068 -4.07202 
1.57051 0.0987923 -4.15877 
1.2198 1.22102 -4.52378 
1.40373 1.23251 -4.412 
0.569289 1.1508 -4.68612 
1.88393 -0.543176 -3.83308 
1.49882 -0.430167 -4.21315 
-9.89015 -1.41916 -19.8593 
1.4604 -0.409785 -4.24742 
-1.08452 -0.354534 -5.86499 
-0.84256 0.584091 -6.0742 
1.75147 1.31781 -4.04713 
2.02933 0.719572 -3.76843 
1.3407 0.401797 -4.37493 
1.76065 0.293687 -3.99942 
1.97972 -1.01492 -3.71799 
0.959289 -0.630379 -3.92403 
0.00463786 0.00712953 -5.07923 
0.500366 -0.522737 -4.3877 
1.2132 0.921833 -4.53253 
1.74313 0.139572 -4.00498 
0.608497 0.388648 -4.80059 
1.85105 0.941641 -3.93363 
-1.11285 1.14272 -6.62103 
1.19588 0.511191 -4.32878 
-8.30417 -0.634332 -18.6355 
-0.80527 1.36601 -5.85929 
1.78778 -0.618205 -3.91926 
1.37019 1.51358 -4.4235 
-10.7235 1.8246 -20.4966 
1.65433 0.727897 -4.11597 
1.32165 0.731357 -4.41303 
-1.70906 0.223912 -7.12773 
0.791555 -0.29139 -4.30573 
1.52788 0.0627053 -4.1911 
-11.0013 -0.933693 -20.2758 
1.94795 -0.173248 -3.79362 
-9.4786 2.7776 -19.4315 
-1.59685 1.38815 -7.072 
1.84039 0.287393 -3.92153 
1.43274 -1.12056 -4.12827 
1.30793 1.12118 -4.44584 
1.47181 0.59029 -4.26929 
0.778911 1.65038 -4.94341 
0.290662 0.292289 -4.91493 
1.74632 1.37093 -4.05484 
0.950604 1.10397 -4.77311 
-8.94668 0.123095 -19.0439 
-11.0478 0.361383 -20.4915 
-7.21779 0.320124 -17.8925 
2.02118 0.0618866 -3.75529 
1.10128 1.29331 -4.62373 
1.32602 0.905553 -4.41188 
-10.7177 -0.982666 -20.3668 
1.65485 0.752881 -4.11084 
1.66822 1.28718 -4.10789 
1.25685 1.36925 -4.50341 
-9.59783 2.04316 -19.6516 
0.977965 1.56601 -4.76154 
-9.91102 -1.91949 -19.2957 
0.118444 0.363355 -5.06584 
0.459747 -0.0399642 -4.92162 
1.65965 0.472024 -4.08914 
1.37749 1.23948 -4.39105 
1.93148 -1.41285 16.8947 
-0.267575 1.75356 -5.16271 
1.54714 0.952225 -4.22314 
-1.21934 0.490193 -6.17476 
-1.01109 1.81909 -6.57307 
-1.23132 -0.0825102 -6.25909 
-9.70658 2.02439 -19.7253 
-10.3361 5.68599 -20.2611 
-9.90684 2.68484 -19.9998 
-0.776955 -0.394259 -5.58011 
1.95373 0.900571 -3.81365 
0.676994 0.764247 -4.71258 
-0.559626 1.36265 -5.51144 
1.72403 0.0865502 -4.01844 
-11.1799 3.11248 -20.2101 
0.691444 -0.531914 -4.29391 
-9.2684 -0.327548 -19.3091 
1.25738 1.32027 -4.51394 
-0.832067 0.635987 -6.07126 
1.54023 0.939651 -4.23354 
-0.402755 1.74106 -5.27202 
0.971213 -0.0421198 -4.28904 
1.42526 -0.38883 -4.26509 
-1.62857 1.79723 -7.16276 
-8.98195 0.46831 -19.3997 
1.78879 -1.06999 -3.84228 
0.452997 1.39452 -4.80577 
2.01582 0.0786501 -3.74948 
1.71181 0.10588 -4.01705 
1.97744 -0.0904313 -3.77868 
0.82003 -0.561173 -4.03781 
-1.30461 2.40002 -6.85875 
0.232569 0.101899 -4.95872 
-10.0715 2.05756 -19.9312 
1.48559 -0.566036 -4.2199 
1.69106 -0.257514 -4.02624 
1.57306 1.0543 -4.2071 
-1.22766 0.922491 -6.72253 
0.562203 0.158141 -4.73748 
1.36516 0.157272 -4.343 
2.0143 0.908411 -3.77403 
-1.59914 -0.100341 -6.98381 
1.03198 -0.289421 -4.08466 
1.55722 -0.667383 -4.14963 
-7.5036 -0.11316 -17.9678 
-10.8202 -1.25185 -20.3679 
0.935584 -0.760726 -3.98231 
1.36473 0.158019 -4.34402 
1.48637 -0.220867 -4.22837 
1.73089 1.04393 -4.05129 
1.02223 -0.296514 -4.08187 
-1.40371 1.33902 -6.88712 
0.229698 0.0228266 -4.95693 
-0.0997484 -0.576393 -4.86684 
1.56305 0.0588127 -4.15521 
0.287292 -0.0573479 -4.90407 
0.203169 1.3624 -4.83774 
1.94522 -0.173717 -3.79295 
-9.91695 1.94241 -19.8578 
-0.218008 1.74702 -5.10899 
-1.39707 2.16549 -6.92836 
-0.924934 -0.430749 -5.72832 
1.96906 -0.206679 -3.78308 
1.6485 0.154871 -4.07938 
0.944562 -0.709584 -3.99395 
1.96857 0.297128 -3.80397 
0.641863 0.214767 -4.71607 
-1.41679 0.712444 -6.90238 
-9.72743 2.19742 -19.6395 
1.95966 0.880968 -3.82193 
1.67889 -0.819824 -4.03411 
1.46386 0.219888 -4.26113 
1.30501 0.554324 -4.41981 
1.63944 -0.305031 -4.06873 
1.91871 1.0961 -3.86967 
-1.14959 -0.150993 -6.16643 
0.620972 1.13198 -4.65567 
-1.97418 2.08377 -7.43613 
1.74736 0.921362 -4.03422 
1.80851 -0.713121 -3.89634 
1.69788 0.21261 -4.0467 
1.29507 0.551366 -4.42702 
-9.63076 1.58999 -19.7319 
0.629917 -0.446969 -4.31373 
-0.302664 -0.587991 -5.05756 
1.6364 -0.221614 -4.09042 
1.8559 -0.697278 -3.85172 
-0.0697961 1.09096 -5.24486 
1.01414 1.10455 -4.71905 
-1.72125 0.56624 -7.11718 
1.76893 0.730739 -3.99978 
1.79726 -0.314082 -3.92493 
2.04221 0.730014 -3.75336 
-1.84029 -0.246624 -7.21685 
1.40092 0.546895 -4.33563 
1.84798 -0.781157 -3.8609 
-1.48951 1.16761 -6.96382 
-10.9171 -1.161 -20.3918 
1.51588 -0.621245 -4.17692 
1.55243 -0.421402 -4.15726 
-10.9559 -1.27886 -20.2646 
-7.24478 0.874512 -18.0498 
1.69378 -0.196256 -4.0383 
-1.50459 1.87371 -7.00117 
1.7021 -0.0823335 -4.03756 
-9.60038 1.58456 -19.6735 
1.65726 0.889715 -4.11156 
-6.96228 0.601833 -17.9973 
0.596676 0.813865 -4.77343 
1.77048 0.731357 -3.99173 
1.8271 1.25075 -3.95811 
1.58788 -0.00596042 -4.13862 
-0.285498 0.852057 -5.43639 
-1.47972 1.35711 -6.97209 
0.721221 0.397688 -4.70666 
1.67934 1.15535 -4.09692 
1.53891 0.232916 -4.19064 
1.19972 1.08778 -4.55278 
1.99311 -0.0748775 -3.7676 
-0.140694 -0.66017 -4.89083 
0.0224155 0.38655 -5.15747 
0.0977517 0.0175047 -5.07452 
1.89791 -0.435785 -3.83567 
1.19283 0.962643 -4.53763 
-10.8373 -1.26203 -20.0521 
1.5687 -0.232344 -4.16236 
-10.7917 1.10041 -20.4106 
-0.156484 1.55304 -5.2247 
1.56823 0.950102 -4.20592 
1.9472 -0.471418 -3.77915 
1.39343 1.51835 -4.38727 
0.827973 -0.0906087 -4.5812 
2.02997 1.11853 -3.778 
1.17246 1.09616 -4.57572 
1.94937 -0.0624727 -3.80217 
1.6572 -0.0781563 -4.08429 
-1.51013 2.33905 -7.03033 
0.786681 -0.86695 -4.13544 
-7.24757 0.900003 -18.0429 
1.99818 -0.609061 -3.72456 
-1.38376 1.68729 -6.8673 
1.96965 -0.00666453 -3.79101 
1.41707 1.29655 -4.34765 
1.19628 1.4524 -4.56992 
-1.56932 2.24832 -7.08299 
-0.0435678 0.484616 -5.18027 
-1.82705 2.57275 -7.31804 
0.565568 0.170623 -4.72985 
1.74957 -0.236291 -3.97037 
0.509572 0.87031 -4.89576 
1.55541 -0.710779 -4.14272 
1.19677 1.0576 -4.5466 
1.72646 0.137585 -4.01716 
-0.112116 0.153303 -5.10331 
-10.9998 -1.2472 -20.7555 
1.88901 -0.414109 -3.83014 
1.37783 0.748605 -4.36923 
-0.141233 1.09196 -5.33894 
1.58074 0.441314 -4.18905 
-8.59536 -1.33896 -18.9767 
1.21389 0.926094 -4.52948 
-9.96135 2.00381 -19.9085 
-0.363273 -0.132361 -5.48511 
1.64344 -0.739956 -4.0816 
1.4191 -1.07094 -4.18909 
-10.8458 -1.22884 -20.0207 
1.73268 -0.839968 -3.96827 
1.9439 -0.738833 -3.77073 
1.81626 0.918646 -3.95295 
1.54998 -0.105036 -4.15879 
1.50952 -0.184942 -4.20201 
1.80582 0.574035 -3.96246 
-8.99429 2.42096 -19.3275 
-0.320269 -0.569705 -5.0689 
1.63733 0.928776 -4.13999 
1.64546 0.164447 -4.08703 
1.75359 -1.13468 -3.80817 
-0.217659 -0.477406 -5.07899 
1.65939 0.757421 -4.11578 
0.947056 -0.288414 -1.7652 
1.85871 -0.707345 -3.8522 
-1.11978 -0.0648959 -6.24452 
-1.90764 0.481393 -7.31188 
-10.7436 1.00678 -20.2953 
1.82478 -0.89096 -3.88824 
1.95301 0.53305 -3.82405 
1.53775 0.435887 -4.21196 
-9.72806 1.71809 -19.7649 
0.234529 0.444873 -4.96772 
1.46241 -0.263134 -4.24377 
-1.336 0.734269 -6.82316 
-10.9683 1.5933 -20.5331 
0.129219 -0.371521 -4.76706 
-7.47846 -0.687179 -18.1405 
1.78536 -0.552938 -3.93202 
1.55893 1.34697 -4.22392 
0.725559 -0.824256 -4.19117 
-11.0574 1.6164 -20.1667 
-10.1451 2.28086 -20.2794 
1.11407 1.10069 -4.6293 
-1.92816 0.357109 -7.32892 
0.448616 0.758275 -4.95776 
0.124031 -0.469344 -4.77342 
1.57081 -0.418255 -4.13619 
1.97033 -0.642984 -3.75856 
1.82966 0.622999 -3.93103 
-0.215264 0.106007 -5.06569 
0.908757 0.457252 -4.18497 
1.47872 -0.398402 -4.22755 
0.979152 1.47596 -4.75504 
-0.846094 0.446559 -6.0767 
1.34239 1.2895 -4.4249 
1.96416 -0.873209 -3.75365 
1.58265 0.529184 -4.18511 
-1.68195 -0.0738837 -7.08915 
-8.25276 -0.580199 -18.7156 
1.95763 0.729785 -3.8225 
-1.13015 -0.0398366 -6.19528 
0.577067 -0.375702 -4.36657 
-0.0599125 0.291569 -5.24111 
-0.387301 1.42039 -5.3848 
1.5456 0.700127 -4.20273 
-0.52253 1.76246 -5.36902 
0.941405 1.44688 -4.79378 
0.89623 -0.529516 -4.06532 
-1.27969 0.450905 -6.16987 
1.64521 -0.923436 -4.05592 
-7.48539 1.35198 -17.9799 
1.38673 0.423064 -4.3425 
1.44026 0.74868 -4.31311 
-1.79641 0.847701 -7.24152 
-7.2201 -0.147465 -18.0039 
-7.88455 2.76196 -18.643 
-1.48621 -0.695314 -4.67591 
1.83874 1.11013 -3.94044 
-1.91472 1.84301 -7.37894 
-0.59731 1.76054 -5.45365 
0.974513 -0.086944 -4.28047 
-1.65883 0.269933 -7.0867 
-0.751755 -0.410404 -5.55811 
1.94289 -0.887029 -3.76979 
1.84711 0.704827 -3.91663 
-8.0514 2.04298 -18.7659 
-0.0316677 0.499278 -5.18613 
-6.81463 1.82677 -17.8699 
-7.6611 3.20378 -18.4347 
-7.20467 0.17869 -17.9764 
1.23276 0.754532 -4.49019 
-6.99154 5.41587 -18.0088 
1.63269 1.09395 -4.14344 
-1.63237 1.50996 -7.07237 
-1.38867 1.29808 -6.87954 
1.98212 -0.449628 -3.75153 
1.76335 0.206277 -3.97834 
-1.65325 0.835379 -7.13334 
-1.34913 1.09123 -6.82914 
0.923366 1.45671 -4.79655 
-6.92443 -1.4247 -17.7933 
-1.96323 0.00517532 -7.39064 
2.02462 0.70363 -3.75978 
-8.24196 1.46611 -18.7539 
1.87721 0.0787488 -3.88083 
-0.850813 0.492583 -6.07945 
-8.86711 5.25491 -19.3367 
1.24329 1.1542 -4.5051 
-1.428 0.751368 -6.91359 
1.72187 0.0897207 -4.01674 
0.498999 0.895666 -4.8947 
1.99458 -1.02675 -3.70902 
-0.46348 -0.13401 -5.57399 
0.288015 0.0797937 -4.90666 
-2.01072 -0.219742 -7.35744 
1.81265 -0.806706 -3.89166 
-7.50185 0.0228975 -17.9639 
1.77375 -0.0647 -3.96402 
1.6343 -0.87636 -4.06065 
0.257389 1.30243 -4.89764 
-10.1004 2.89948 -20.0382 
1.51718 -0.419686 -4.18798 
1.41027 0.44246 -4.31936 
-9.25294 -0.669128 -19.3914 
-1.59661 1.77646 -7.07948 
1.82925 -0.424643 -3.90837 
1.45615 0.0619583 -4.26776 
0.444261 0.141625 -4.93511 
-9.78823 2.79967 -19.8148 
-8.50061 4.22805 -18.9764 
1.51663 0.300162 -4.21222 
1.99823 0.0607868 -3.76831 
-0.102398 0.0730874 -5.03138 
-7.22466 0.611706 -17.9778 
0.164963 0.349435 -5.02002 
1.51153 0.609176 -4.23729 
-1.47403 1.38147 -6.94644 
-9.02713 1.47625 -19.2791 
1.40937 -1.1252 -4.13944 
0.0418991 0.396892 -5.16198 
1.97547 0.33274 -3.7883 
1.10599 0.856041 -4.61774 
-7.80672 -1.45918 -18.5575 
1.63876 -0.0528281 -4.0864 
1.96319 -0.0767947 -3.80249 
0.978145 -0.993147 -3.96375 
1.84182 0.684721 -3.93262 
1.60645 -0.0720112 -4.12678 
1.99747 0.520476 -3.78034 
1.44405 1.10369 -4.33412 
-1.48822 -0.615849 -6.09632 
1.27689 0.557213 -4.44454 
0.634427 -0.311561 -4.32051 
-1.76586 1.27454 -7.22134 
-6.95286 -0.434018 -18.0666 
-7.18993 -0.719295 -17.9549 
0.61874 -0.326402 -4.33364 
-0.247094 -0.580679 -4.99966 
0.772589 -0.949992 -4.14064 
-1.76213 0.101758 -7.12669 
-8.70525 1.55079 -18.9847 
1.38978 -0.412575 -4.30485 
1.52915 0.261018 -4.19894 
1.828 1.04214 -3.95671 
1.68035 0.202258 -4.06424 
1.34526 0.331139 -4.37452 
1.82181 0.288332 -3.94106 
0.956888 1.05701 -4.76434 
1.8448 0.736724 -3.91453 
1.76478 0.205951 -3.97953 
1.64929 0.779841 -4.11888 
-1.43335 0.914258 -6.91336 
1.50624 -0.721078 -4.18558 
1.58935 0.383737 -4.13865 
0.859357 -0.178081 -4.31606 
1.2135 1.47966 -4.54911 
1.77959 -0.898045 -3.92881 
1.81456 0.545965 -3.96504 
1.66633 0.523791 -4.09846 
-1.25188 -0.353616 -6.08492 
0.186725 0.526485 -5.01604 
1.40877 0.0938743 -4.29926 
0.806013 1.68828 -4.9244 
-9.71158 3.02035 -19.8485 
1.57979 0.493592 -4.16454 
-2.13822 -0.622871 -7.45687 
0.993538 0.921355 -4.71125 
-0.375568 0.642236 -5.4614 
1.51418 0.0785377 -4.19724 
1.56834 0.104514 -4.1539 
1.87496 0.521268 -3.89805 
0.82053 -0.88693 -4.1024 
-1.57157 2.5023 -7.10269 
1.67901 -1.11228 -3.89205 
1.52193 -0.432664 -4.18899 
-0.275036 1.55442 -5.32648 
1.69044 0.130928 -4.05929 
-1.96713 1.1616 -7.38301 
1.70356 0.511107 -4.06167 
1.85319 0.677551 -3.91326 
-9.68623 1.34265 -19.9091 
0.5847 0.763692 -4.82862 
1.60952 0.0636356 -4.13158 
1.36201 -0.236992 -4.34587 
0.812635 -0.335203 -4.14593 
-10.0432 1.99619 -19.9543 
-1.96592 1.63958 -7.395 
0.989251 -0.117887 -4.2675 
-1.12888 0.00289001 -6.2831 
1.8236 1.0818 -3.97581 
1.9733 -0.424044 -3.77128 
-0.054296 0.106694 -5.12856 
-1.7922 0.0722841 -7.17552 
-1.46816 -0.514904 -6.18833 
1.08182 1.25576 -4.65452 
-8.47333 -1.44056 -18.8229 
0.991589 0.231121 -4.26246 
0.557536 -0.337857 -4.3892 
1.57693 0.369036 -4.17121 
-11.0722 -0.339274 -20.5289 
2.00356 0.527356 -3.77596 
1.94984 -1.02169 -3.75059 
1.71717 -0.429211 -4.01687 
1.74043 -0.872461 -3.96626 
-9.6639 2.14297 -19.8335 
-7.64252 2.76746 -18.4183 
1.50179 -0.430489 -4.22304 
-9.74316 3.07309 -19.6527 
1.74058 1.3115 -4.05426 
-7.92483 2.02362 -18.452 
1.67874 0.85162 -4.08441 
-1.17898 1.75268 -6.71409 
-7.17988 1.77118 -18.1516 
1.60976 0.0455541 -4.12531 
-1.53081 2.27953 -7.04132 
-0.83761 0.612193 -6.07348 
1.87171 0.501424 -3.89974 
0.959203 -0.577474 -3.88736 
1.36455 -0.239195 -4.34458 
1.78045 0.705894 -3.98848 
1.53898 0.233356 -4.19346 
-1.08207 0.031198 -6.26427 
2.00294 -0.496027 -3.72645 
-7.3389 1.36119 -18.1539 
-8.8162 -1.45815 -18.981 
-0.685173 0.235469 -5.90136 
1.9931 -0.610826 -3.72792 
0.0766714 -0.270172 -4.91017 
1.75728 -0.79328 -3.94035 
1.4828 -0.721019 -4.20633 
-1.74013 1.21528 -7.1828 
1.65874 -0.418131 -4.07185 
1.96025 -0.0748124 -3.80146 
1.94411 0.529852 -3.83762 
-0.00161541 1.60451 -5.07701 
1.96826 0.472096 -3.80019 
1.80657 -0.210802 -3.93988 
-1.68911 0.755669 -7.13197 
0.144449 0.630175 -5.01963 
-1.94601 0.44793 -7.32735 
1.75152 0.271187 -4.00311 
1.25572 1.28182 -4.50533 
1.37716 0.748074 -4.36623 
1.88631 0.674606 -3.88587 
1.03907 -0.264438 -4.07509 
1.61833 1.40289 -4.16902 
1.20007 1.45071 -4.56338 
1.42234 -0.410016 -4.27902 
-1.42395 2.06539 -6.94695 
-8.12589 -0.217092 -18.686 
1.67292 0.241454 -4.07053 
1.32657 0.927188 -4.41989 
1.76926 0.00761457 -3.98224 
0.876299 -0.924295 -4.05369 
-8.73523 6.18832 -19.2695 
0.988804 1.49744 -4.75262 
-8.64781 1.51963 -18.9429 
-1.56012 1.85951 -7.04867 
-10.0806 6.41064 -20.1485 
1.57061 0.0983803 -4.15442 
-1.07226 2.31895 -6.63548 
1.59617 0.0264411 -4.13726 
1.00214 -0.326738 -4.02535 
-1.95188 1.65942 -7.39154 
1.73462 1.00345 -4.05274 
-8.59128 2.73943 -19.0416 
1.60137 -0.732951 -4.11285 
1.69825 1.10228 -4.09078 
1.92042 0.0842634 -3.83412 
1.15423 1.53701 -4.59858 
1.36622 1.18557 -4.39165 
-0.183864 0.111216 -5.06209 
0.69635 -0.33483 -4.2583 
1.94574 -0.111438 -3.79533 
1.8154 1.0684 -3.97966 
-7.47219 2.25278 -18.2499 
-2.00575 2.24919 -7.47471 
0.45881 0.223581 -4.93406 
1.96023 0.829434 -3.81777 
1.02895 1.11049 -4.71283 
1.24373 1.24171 -4.50442 
1.80954 1.3376 -3.98391 
1.3909 1.16523 -4.37225 
1.40571 -0.422976 -4.29409 
0.151863 1.34743 -4.88116 
-0.258678 1.02923 -5.4188 
1.39697 0.449535 -4.33047 
-1.3229 2.35442 -6.86907 
0.794159 -0.266454 -4.29772 
1.78299 -1.04515 -3.88346 
1.51171 1.32639 -4.27566 
1.38756 1.40343 -4.37445 
1.56268 0.229398 -4.16352 
1.6565 1.22078 -4.11719 
1.42568 0.388756 -4.35096 
-1.90456 1.34301 -7.3152 
1.66519 0.548023 -4.08956 
-1.65354 -0.0858272 -7.0594 
-7.84451 1.61953 -18.1704 
1.39172 1.16531 -4.37254 
-1.29631 0.258809 -6.31987 
1.72417 -0.104316 -4.00577 
1.30185 1.26996 -4.4627 
-1.13401 1.1367 -6.65327 
-9.71814 3.15161 -19.653 
2.0173 -0.22524 -3.72917 
1.29134 1.55621 -4.49256 
1.11378 1.59196 -4.66243 
1.27263 1.29901 -4.49097 
1.57407 -0.577526 -4.11911 
1.41051 -1.05951 -4.2233 
1.2669 0.723226 -4.47158 
1.42261 0.0518713 -4.28846 
0.612445 -0.388922 -4.33334 
0.785092 -0.936973 -4.13508 
-1.60933 2.5249 -7.12312 
1.50929 0.480263 -4.23045 
1.45758 0.149298 -4.26339 
1.6352 0.321069 -4.10894 
1.67145 -0.543109 -4.02967 
-7.19696 -0.920123 -18.0392 
-0.851876 0.492208 -6.06774 
1.57257 -0.929858 -4.10799 
1.88335 0.975671 -3.90559 
-7.44018 1.44452 -18.1347 
-10.171 1.9962 -20.0626 
1.38885 1.19077 -4.38185 
-0.299611 1.22558 -5.46167 
1.56685 0.743434 -4.19589 
0.755642 -0.587124 -4.08911 
-10.8127 2.51297 -20.4624 
1.40005 0.380229 -4.32458 
0.0929603 -0.570404 -4.69648 
-0.769686 0.4949 -6.03798 
1.2403 0.673223 -4.48611 
-0.312887 -0.455269 -5.16853 
1.75675 -0.21012 -4.00378 
-1.3075 1.54708 -6.7967 
-1.55158 2.25515 -7.08953 
1.91787 -0.446619 -3.81809 
-9.97878 -1.40804 -20.0918 
0.833878 1.62418 -4.91266 
1.77434 0.00272518 -3.96404 
1.97194 0.626065 -3.80135 
1.82971 -0.625592 -3.88216 
1.79178 -0.0596804 -3.9521 
1.66404 1.19128 -4.10684 
-1.61758 0.945047 -7.04944 
-2.01937 -0.657754 -7.37834 
0.508908 0.870047 -4.89555 
0.940812 -0.0579945 -4.30203 
-0.349706 -0.353879 -5.20295 
-9.2557 -0.65302 -19.3586 
1.89914 -0.431483 -3.83642 
-1.28876 2.36943 -6.84559 
1.50387 -0.0634757 -4.2257 
1.85011 -0.807428 -3.85517 
1.54657 0.44882 -4.18597 
1.75513 0.133466 -3.99557 
0.201766 1.61875 -4.89265 
1.76134 -1.10964 -3.81292 
1.93621 0.421501 -3.83946 
0.00491165 0.0134437 -5.07142 
-7.18843 0.187672 -17.9309 
-9.78216 -1.66995 -19.9074 
1.9745 -0.640749 -3.74434 
0.79924 -0.364856 -4.16896 
1.59573 0.432615 -4.16264 
1.78984 -0.6187 -3.91353 
1.70864 -0.569656 -4.00733 
-1.82974 1.23207 -7.26065 
1.86278 0.503974 -3.90341 
1.96039 0.82956 -3.81808 
1.95178 1.00861 -3.84277 
1.49098 0.301536 -4.24936 
1.75 -0.912477 -3.97152 
1.75843 -1.02068 -3.94448 
1.08571 1.52189 -4.666 
1.75323 0.293226 -4.00052 
1.75239 0.271102 -4.00432 
1.68954 -0.0827823 -4.05727 
-0.400214 -0.364373 -5.21401 
0.894777 -0.336539 -4.07344 
1.71615 -0.22339 -4.02438 
0.83024 -1.03637 -4.06204 
1.13665 1.51553 -4.62817 
-7.1445 1.86472 -18.0117 
-0.0914713 -0.358205 -4.96927 
0.424303 1.43013 -4.81294 
1.72733 -0.929121 -3.97665 
-1.59739 2.29848 -7.09647 
1.64613 -0.0717964 -4.08815 
-7.20363 -0.472488 -17.9367 
1.16321 1.51594 -4.59612 
1.6777 0.492086 -4.08241 
0.839363 -0.820277 -4.09036 
2.02869 0.242053 -3.73802 
1.72764 0.440039 -4.02489 
1.87151 -1.02642 -3.83068 
1.95708 -0.163359 -3.78732 
-0.39235 -0.361597 -5.21849 
1.03228 1.45672 -4.70843 
1.98219 0.75195 -3.81876 
1.73999 1.31274 -4.05366 
1.61036 0.452375 -4.14642 
1.29251 0.600721 -4.44724 
0.826885 1.50853 -4.88273 
-1.20786 -0.119938 -6.25585 
-10.4232 -0.697661 -20.1344 
-1.13566 -0.404548 -5.89611 
-7.20985 1.83663 -18.1002 
0.923861 1.64471 -4.80218 
1.92573 0.895114 -3.85878 
-9.50327 -1.88032 -18.9348 
1.20996 1.20628 -4.5348 
0.585581 0.176525 -4.71463 
1.34829 0.933519 -4.41083 
0.927814 -0.86463 -3.9953 
0.966956 1.32366 -4.77732 
1.47778 -0.274518 -4.2141 
-9.64652 2.10763 -19.7828 
1.87112 -0.087082 -3.87661 
1.33793 0.837552 -4.39635 
-8.5608 3.40327 -19.0381 
1.49724 0.618486 -4.24336 
0.637626 1.42403 -4.60537 
1.41595 0.558088 -4.30845 
1.90722 0.464012 -3.872 
-1.78455 0.310119 -7.16851 
-8.4967 -0.402204 -18.843 
1.53558 -0.058507 -4.18838 
-0.862693 0.354476 -6.08923 
1.98499 -0.42396 -3.75404 
0.598626 0.183251 -4.70857 
0.752371 -0.816843 -4.17491 
-0.898137 0.138456 -6.14725 
-0.637944 0.243918 -5.85928 
-0.112823 0.349875 -5.15924 
1.55158 1.06492 -4.21453 
-1.6395 1.50759 -7.03941 
0.0866214 0.163266 -5.10344 
0.658653 0.52703 -4.76302 
-1.67758 2.32983 -7.17208 
1.37442 -0.442673 -4.33313 
1.3925 1.19423 -4.38883 
-7.45572 0.772273 -18.1684 
-10.9292 -0.0248395 -20.6049 
1.32731 1.45182 -4.45485 
2.00243 -0.496621 -3.72309 
1.8481 -0.878851 -3.87674 
1.95527 -0.610901 -3.76528 
-0.911733 -0.435643 -5.71944 
0.117905 0.393022 -5.06103 
1.74199 1.33477 -4.05681 
1.22606 1.34516 -4.53501 
-9.36234 -1.48072 -19.5737 
0.241582 -0.351582 -4.67462 
1.63949 -0.0201337 -4.08927 
0.589179 -0.322884 -4.3458 
1.72198 0.117067 -4.01941 
0.159375 -0.3865 -4.73023 
1.4006 0.339361 -4.32893 
1.0856 1.4853 -4.65421 
1.68322 0.968781 -4.08715 
1.84739 -1.02279 -3.85125 
0.185934 0.199086 -4.99648 
-7.21727 0.495136 -18.0388 
1.96844 -0.695627 -3.74867 
1.829 0.267866 -3.92853 
-1.16372 0.000789993 -6.26889 
1.2302 1.28844 -4.53434 
1.7941 0.109814 -3.95534 
-1.28609 1.70937 -6.82175 
0.140822 0.0256842 -5.03565 
1.05227 1.3464 -4.68115 
1.97023 0.483813 -3.79731 
1.43654 -1.11891 -4.11334 
1.66351 0.55233 -4.09355 
1.51893 -0.814614 -4.16418 
-0.866864 0.376914 -6.09323 
1.67776 0.312223 -4.07425 
-7.09023 -1.30228 -17.6875 
0.914415 -0.319921 -4.05198 
1.58748 1.01011 -4.18207 
1.48623 -1.07003 -4.13329 
1.78043 -0.589899 -3.95221 
1.58351 0.50913 -4.1517 
1.38669 0.733205 -4.35557 
1.45798 -0.2362 -4.24975 
1.16627 0.909702 -4.55924 
1.91413 0.68462 -3.86333 
-4.16454 -0.59596 -11.5611 
1.67375 0.0123733 -4.05777 
1.28967 -0.345161 -4.38798 
1.95177 -0.19464 -3.79492 
0.685093 0.180289 -4.72281 
1.68335 1.23583 -4.09899 
1.44955 -0.419432 -4.25521 
1.28628 1.29181 -4.46313 
0.614298 -0.906147 -4.28566 
1.62418 0.15382 -4.10763 
-0.0374486 0.39657 -5.15981 
0.609633 -0.309811 -4.33746 
0.987843 -1.1811 -3.86823 
1.81094 1.13052 -3.9658 
1.75027 0.453196 -4.00958 
1.94806 -0.06136 -3.80199 
-0.350699 0.639264 -5.45594 
1.49122 0.35188 -4.23943 
-0.561205 -0.480783 -5.3842 
-8.98417 5.36831 -19.1036 
1.75992 0.457845 -4.00882 
-0.403896 0.55337 -5.51033 
-11.7136 6.12187 -21.2951 
-7.96046 3.36871 -18.6004 
0.893256 -0.410926 -4.06966 
1.9731 -0.760488 -3.74791 
1.85535 -0.063218 -3.90146 
1.93472 -0.949539 -3.78628 
-0.622006 0.237085 -5.86581 
1.60661 0.487942 -4.13695 
2.02087 -0.0780582 -3.73112 
-1.37775 -0.446627 -6.09614 
1.33067 1.44834 -4.44092 
1.23227 1.44868 -4.53083 
0.901312 1.70177 -4.84056 
-1.80424 1.30711 -7.22971 
1.63091 -0.296317 -4.08478 
-10.2403 -1.48913 -19.9073 
-1.50432 0.910332 -6.96963 
0.946688 1.28474 -4.78698 
1.77277 0.220351 -3.97363 
1.73083 0.746123 -4.03433 
1.5842 -0.308277 -4.13347 
1.70704 0.565606 -4.04789 
1.76719 -0.224061 -3.98999 
0.769955 -0.888986 -4.14992 
1.39681 1.0992 -4.38372 
1.82981 -0.908357 -3.88149 
0.156037 -0.174675 -5.0368 
1.76885 0.0484908 -3.98317 
0.289019 0.42447 -4.91184 
-0.980251 -0.923716 -4.19376 
-1.73852 1.79619 -7.20205 
0.943811 1.5623 -4.79243 
-11.0363 -0.295499 -20.3938 
0.23224 -0.885852 -4.00015 
1.72347 0.178318 -4.02083 
1.87043 0.316087 -3.89098 
-8.54788 3.42549 -19.0237 
1.44976 -0.582349 -4.25278 
-8.67836 4.16007 -19.1238 
0.84363 -0.203511 -4.31707 
-0.945923 -0.544977 -5.68576 
0.988257 -0.978854 -3.94338 
1.34212 0.311991 -4.39725 
0.597494 0.205444 -4.70826 
1.29306 1.21214 -4.46703 
1.75659 -0.722494 -3.95931 
-10.37 0.510031 -20.2739 
1.12702 1.13047 -4.60532 
1.98448 -0.423575 -3.75291 
1.68855 0.150092 -4.05259 
1.65801 0.204156 -4.08181 
0.988214 -0.153033 -4.24824 
0.787539 1.62119 -4.93942 
1.53697 0.340021 -4.20362 
1.80037 -0.108457 -3.92614 
-0.193893 0.163486 -5.10581 
1.86757 0.511217 -3.88795 
1.53199 0.938895 -4.23395 
1.41543 -1.13555 -4.13009 
1.74199 -0.414295 -3.98122 
1.54043 -0.00674493 -4.17954 
0.729969 -0.707168 -4.18267 
-7.86582 -1.3655 -18.2943 
-0.645186 -0.393167 -5.45356 
1.29696 0.72161 -4.43396 
1.13408 1.43139 -4.62211 
1.87413 0.588466 -3.89375 
1.25535 0.64003 -4.47144 
1.49109 0.356349 -4.24259 
-1.76631 0.0240514 -7.17337 
0.421976 0.811556 -4.99723 
1.71123 0.206347 -4.03485 
