ply
format ascii 1.0
comment VTK generated PLY File
obj_info vtkPolyData points and polygons: vtk4.0
element vertex 1732
property float x
property float y
property float z
element face 0
property list uchar int vertex_indices
end_header
-6.05296 2.01396 -14.6439 
-0.907296 -0.189571 -5.40657 
0.479261 0.146052 -4.08425 
-5.13213 3.1181 -14.0274 
0.0809579 -0.154113 -4.3341 
-0.440328 1.13113 -4.76099 
-8.65408 4.70955 -16.1437 
-6.33674 1.80841 -13.3521 
0.370463 -1.16567 -3.54466 
-4.74768 0.0100893 -13.8056 
-4.52915 3.388 -13.7192 
-4.26342 3.56785 -13.5708 
-5.99184 0.874699 -13.192 
-5.23357 -1.4168 -12.1946 
-7.25548 4.02555 -15.3826 
-5.31952 3.05467 -14.1378 
-6.0501 0.951553 -13.2599 
-5.25163 1.79146 -13.6624 
-0.280698 -0.367033 -4.44938 
-7.2949 4.98906 -15.4439 
-8.67352 4.33441 -16.1524 
-4.70127 -1.19225 -13.4613 
-0.074083 0.580527 -4.5387 
-6.3531 3.65889 -14.7082 
1.06381 0.303177 -3.72085 
-7.0787 5.22291 -15.3329 
-8.68391 4.15939 -16.1597 
-6.02271 3.35742 -14.5193 
-5.99657 1.66799 -12.4414 
-5.81398 1.11247 -13.2857 
-5.84222 3.53983 -14.4143 
-5.94187 1.12218 -13.1544 
-7.27842 2.65399 -15.3385 
-6.68954 2.86156 -14.9033 
-6.05335 2.8915 -14.6479 
-4.91045 0.943654 -13.7655 
-5.44153 4.01638 -14.1398 
-7.37708 5.22858 -15.4547 
-1.29559 1.41698 -6.30564 
-6.0184 3.49145 -14.4727 
0.121045 -0.055498 -4.2948 
-8.78217 5.05142 -16.1902 
-7.13481 0.695321 -14.1743 
-6.42207 1.48997 -13.412 
-4.33352 3.56468 -13.5769 
1.00939 1.02709 -3.82542 
0.286291 -0.569879 -3.69872 
0.458089 0.297881 -4.13186 
-8.55507 2.28602 -15.9901 
-7.28877 5.18282 -15.4489 
-4.56211 0.915059 -13.5861 
0.0215343 1.06772 -4.31037 
-1.14101 1.04943 -6.11693 
-0.0729012 0.814986 -4.55159 
-8.90251 -0.724728 -15.9888 
-6.03046 1.15958 -13.232 
-4.96135 1.83847 -13.8438 
-0.0913464 0.844468 -4.5661 
-6.24848 3.96576 -14.5374 
0.159941 -0.329624 -4.11412 
-8.79417 -0.653108 -16.0535 
0.461734 0.181289 -4.10735 
-0.15038 0.537178 -4.58896 
-7.31889 4.80691 -15.4286 
-5.38881 3.47583 -14.1842 
-5.71377 3.15973 -14.4088 
-4.7318 2.77928 -13.9168 
-5.83357 1.09225 -13.2557 
-6.64402 3.02638 -14.8649 
-4.52988 0.00243738 -13.6499 
0.92348 0.925845 -3.91466 
-4.59629 -1.18635 -13.4236 
-7.49986 -0.728758 -15.2011 
-0.00951064 0.737134 -4.47563 
1.44255 -0.220342 -3.26008 
-4.46617 3.0263 -13.822 
-6.0828 1.18341 -13.2025 
-0.180911 -0.0206376 -4.39866 
-7.03892 1.50385 -13.7852 
-4.61711 3.38132 -13.7685 
1.0139 0.972637 -3.81802 
-8.50646 -0.386769 -15.8299 
0.0502147 -0.0660902 -4.36851 
-5.55584 1.49561 -13.5577 
0.961491 1.16524 -3.88779 
0.280105 -0.579585 -3.69277 
-5.81968 2.76689 -14.4856 
-4.93748 -0.331947 -13.7235 
-0.336619 0.580121 -4.67614 
-7.27005 4.91395 -15.4526 
-5.06905 1.26843 -13.8647 
-0.155608 0.053689 -4.43905 
-8.62565 2.43009 -16.0873 
-8.55328 1.91561 -15.9698 
0.599747 -0.358739 -3.4873 
0.460347 -0.14667 -4.10181 
-4.37571 1.09622 -13.5248 
-4.58239 3.48135 -13.7408 
-4.5074 0.587387 -13.6787 
-5.60985 2.90881 -14.2789 
-0.359845 0.139824 -4.82194 
-6.38479 3.79197 -14.7004 
0.48001 -0.40084 -3.61671 
1.21555 0.217062 -3.55757 
-5.37762 4.05404 -14.1596 
-5.35741 1.56138 -13.5977 
-5.52998 3.50042 -14.3157 
1.52821 -0.25568 -3.17389 
-7.16516 4.79025 -15.3458 
-5.24423 2.99828 -14.0871 
1.29687 -0.19669 -3.42805 
-6.13481 3.75188 -14.5989 
1.43074 -0.274631 -3.26213 
-4.67579 2.25019 -13.9181 
-5.23068 0.808404 -13.7569 
-0.0616322 0.342667 -4.4938 
-6.0285 0.976984 -13.297 
0.153351 0.095243 -4.26597 
-7.46998 0.681145 -15.2258 
-0.408602 1.12569 -4.74009 
1.37512 -0.724627 -3.30341 
-5.30787 1.80645 -13.7082 
-8.65771 1.79224 -16.0497 
-5.9375 2.63066 -14.7338 
-7.50505 0.839792 -15.221 
-0.208565 0.0355814 -4.41908 
-0.141498 0.841299 -4.61686 
-4.51684 -0.0311122 -13.6017 
-5.63855 1.38527 -13.2381 
-4.58453 3.73377 -13.7628 
-6.58361 2.13958 -14.8281 
-7.23772 0.930767 -13.913 
-5.11769 0.751677 -13.8475 
-7.54864 0.659442 -15.2199 
-0.88467 -0.30067 -5.22502 
0.63713 -0.124019 -3.73497 
-5.05722 1.11672 -13.8379 
-0.00598141 -0.27605 -4.30952 
0.545499 0.08066 -4.02994 
-8.54991 4.67936 -16.1072 
-5.64672 3.19548 -14.218 
-4.76561 0.900481 -13.7111 
0.522028 0.284128 -4.05637 
-7.045 0.706811 -13.9682 
-6.342 2.93426 -14.7261 
-6.11503 2.37296 -14.68 
-5.16845 3.12688 -14.0407 
-6.09137 4.96392 -14.7725 
-0.124195 0.167777 -4.58811 
-0.95147 0.266535 -5.3872 
-8.04982 4.89941 -15.7532 
1.12731 1.17377 -3.72082 
-0.0429067 -0.0250588 -4.41335 
-1.14725 2.09257 -6.19868 
-4.49797 0.621218 -13.6535 
-6.40952 1.66715 -13.3922 
1.35672 -0.161812 -3.35858 
1.28473 0.641054 -3.50768 
-6.68649 1.75422 -13.528 
-4.74912 2.68796 -13.8921 
-6.69971 4.90989 -15.0216 
-4.31065 3.24202 -13.5658 
-6.64562 1.74309 -13.4488 
-7.13764 4.86261 -15.3657 
-1.06401 0.527298 -6.01784 
-6.21926 3.1355 -14.4973 
0.874516 1.11896 -3.98047 
0.976078 0.499528 -3.82653 
1.17878 0.629384 -3.61002 
-8.75618 0.154879 -16.0045 
0.499155 0.299805 -4.07012 
-7.34187 5.15568 -15.4622 
1.10669 0.977151 -3.72668 
-4.88335 -0.720366 -13.7172 
-5.9654 2.3544 -14.6762 
-6.4038 3.64527 -14.7175 
0.375743 -0.123252 -4.20104 
-5.9668 2.35503 -14.6202 
0.255692 -0.490307 -3.86168 
-4.82962 1.79918 -13.7259 
-8.15287 4.71409 -15.8016 
0.111538 0.598635 -4.19435 
-0.85779 -0.22899 -5.32749 
0.968568 0.504234 -3.83794 
1.36034 0.0580556 -3.38803 
-5.35898 2.89785 -14.1167 
1.30033 0.821061 -3.50314 
-0.178862 0.794512 -4.65944 
-5.93546 2.53282 -14.5936 
-6.217 1.48788 -13.319 
0.387435 0.367923 -4.21003 
-8.69828 3.93837 -16.1737 
-0.987058 -0.775244 -3.65984 
-0.597095 -0.0585571 -5.2205 
0.318543 0.0710494 -4.25596 
1.43 0.620872 -3.34282 
-1.19094 1.04148 -6.1695 
1.30798 0.0829651 -3.43632 
-6.81506 1.70391 -13.6077 
-0.935845 0.91268 -5.89662 
-7.28344 1.77246 -14.0481 
-5.03112 1.12433 -13.8063 
-5.36258 3.23709 -13.9995 
0.666934 1.29027 -4.20215 
-7.37713 -1.03816 -13.4321 
-6.09394 4.73067 -14.7546 
-4.40789 3.53072 -13.6458 
-7.26188 3.42481 -15.2589 
-5.11995 2.70301 -13.9869 
-4.51921 1.11247 -13.6032 
-6.80297 1.47293 -13.5688 
0.0127727 0.689943 -4.44704 
-5.44428 -0.866524 -13.5914 
-0.860568 -0.290865 -5.27014 
-5.22653 1.32916 -13.546 
-0.138101 0.824025 -4.61721 
-6.50265 2.87699 -14.7395 
-0.156855 0.0730089 -4.44357 
1.18102 0.46665 -3.61103 
-5.97063 2.21441 -14.6786 
0.465041 0.264161 -4.12265 
-1.23062 0.670918 -6.196 
-7.55181 -0.57239 -15.1578 
-7.53 -0.161389 -15.1539 
-8.57861 0.377313 -15.9254 
-6.07116 3.11078 -14.5129 
-7.15652 2.61258 -15.262 
-8.02417 4.74263 -15.7295 
0.510181 -0.403256 -3.58409 
-5.77434 3.99591 -14.3671 
0.687006 -0.269993 -3.54253 
0.120859 -0.0212558 -4.29731 
-5.73612 3.82561 -14.3572 
-7.45621 3.07565 -15.3176 
-5.97926 2.02768 -14.5734 
-0.391416 0.228124 -4.85781 
0.0149786 1.1657 -4.27623 
-0.345492 0.338749 -4.81961 
-4.44581 3.77153 -13.6927 
-0.0456849 -0.0634197 -4.41054 
-5.75793 3.09191 -14.412 
0.151402 -0.228797 -4.1747 
-5.80749 1.17708 -13.2815 
1.31852 -0.262522 -3.40476 
-5.93937 3.4485 -14.4539 
-4.29922 3.17033 -13.61 
1.1342 0.052725 -3.62814 
0.917007 1.34717 -3.95609 
1.61391 0.0176649 -3.1108 
0.904766 0.619972 -3.9171 
-6.0937 5.30274 -14.7672 
-4.72364 0.580978 -13.7534 
-6.93122 3.18494 -14.9256 
-8.69557 3.97467 -16.1619 
-0.740389 -0.97808 -3.30089 
-6.45521 3.17315 -14.6482 
0.725784 1.2458 -4.13781 
-0.605031 0.993671 -5.07625 
-6.41498 5.29873 -14.8761 
1.45515 -0.723735 -3.20988 
-7.09582 1.68912 -13.8739 
-5.39086 3.03488 -14.0815 
-0.0119054 1.15594 -4.33034 
-0.473771 -0.97018 -3.30317 
1.28322 0.192369 -3.46089 
-5.7556 3.83258 -14.3461 
1.5187 -0.290862 -3.16829 
-4.71899 3.50108 -13.8107 
1.06444 1.13403 -3.77372 
-5.76286 2.21158 -14.3603 
-0.872835 -0.251888 -5.28407 
-0.875729 -0.278332 -5.2693 
0.150217 -0.258937 -4.16258 
-8.76855 -0.0617414 -16.0005 
1.02237 0.443272 -3.78017 
1.0745 1.05479 -3.75309 
-5.84712 3.90574 -14.3781 
-6.41672 3.16723 -14.5913 
1.20783 0.188126 -3.55344 
-5.30067 1.55859 -13.76 
-7.06317 1.68113 -13.8141 
-0.088946 -0.0575399 -4.41052 
-4.73086 0.586838 -13.7791 
1.31117 0.375636 -3.46461 
1.37733 0.160865 -3.37364 
0.455819 0.391092 -4.13515 
1.15307 -0.277837 -3.58956 
-7.12806 1.11398 -13.8982 
0.751758 0.783008 -4.08181 
-6.01385 1.49603 -13.257 
-5.22875 1.22211 -13.6355 
0.203031 -0.382486 -3.91699 
-5.04432 1.20391 -13.8567 
-5.69348 -1.0455 -13.142 
-0.848478 -0.273616 -5.28393 
0.452559 -0.377847 -3.64 
-0.15566 0.815571 -4.63836 
-0.281828 0.640111 -4.75035 
-6.29582 3.69335 -14.6867 
-5.51208 -1.12807 -12.854 
-0.01159 -0.0937594 -4.357 
0.0988016 -0.141225 -4.3141 
-8.68066 3.99672 -16.1435 
1.46153 -0.722034 -3.19705 
-5.53782 2.98974 -14.1644 
0.465105 -0.394285 -3.63175 
-8.46125 5.06036 -15.9856 
-1.1691 1.03448 -6.17287 
-6.13131 2.53402 -14.6614 
-5.34063 1.79545 -13.6868 
0.615402 -0.374027 -3.46901 
-0.064964 0.371514 -4.50658 
-0.335762 -0.485062 -4.50925 
0.419148 -0.465746 -3.68937 
-4.98712 1.21843 -13.8255 
-0.846004 1.4686 -5.84345 
-6.51137 3.56465 -14.7272 
0.72595 1.24783 -4.14319 
-0.0325317 -0.0252707 -4.39346 
-7.17777 2.76285 -15.2404 
1.57756 -0.0385887 -3.13117 
0.375988 -0.47429 -3.72392 
-0.118116 -0.569149 -4.16045 
-8.52973 3.05265 -15.9441 
-0.332676 -0.40318 -4.51415 
0.71588 -0.226891 -3.57647 
1.51294 -0.235492 -3.18651 
-5.08448 -0.0859701 -13.8274 
-5.33659 4.04406 -14.2054 
1.43391 -0.197274 -3.2734 
0.507238 -0.378874 -3.59185 
-8.62007 3.36691 -16.0084 
1.06215 1.13297 -3.77308 
-5.78301 2.68903 -14.4583 
-6.01503 -0.737644 -13.0481 
0.407908 0.298658 -4.17508 
-7.35413 0.522866 -15.2242 
-6.04063 3.94935 -14.4829 
-8.63685 0.00180516 -15.8926 
-4.75448 5.04323 -14.0084 
1.28844 0.799495 -3.50107 
-8.67398 2.83579 -16.0947 
1.34831 0.957898 -3.45693 
0.0200902 -0.100614 -4.37899 
0.872452 0.659632 -3.94909 
-4.91573 1.87073 -13.8764 
-6.01478 3.76363 -14.5069 
0.0850512 1.27285 -4.24015 
0.864947 0.779208 -3.96434 
-0.29472 0.283609 -4.76181 
-1.15162 -0.907416 -3.83822 
-1.11627 2.1124 -6.16998 
-0.148548 0.000900278 -4.41629 
0.844234 0.634591 -3.97158 
-0.575106 1.47694 -4.94683 
0.845047 0.632113 -3.97146 
-4.61797 3.49198 -13.7461 
0.691797 -0.145774 -3.66883 
-0.885682 -0.0925321 -5.40482 
-0.233033 -0.00462222 -4.41436 
1.23218 0.244199 -3.55158 
-8.54223 4.87948 -16.0941 
-0.23513 -0.393014 -4.40842 
0.00606302 -0.494381 -4.13475 
-5.18015 2.77419 -14.0585 
-1.15808 2.08204 -6.21054 
-5.98523 2.96927 -14.5121 
1.44418 -0.886393 -3.2169 
1.2985 -0.139224 -3.43025 
-6.50968 3.00296 -14.781 
1.33987 -0.248863 -3.39128 
1.43982 -0.453195 -3.25347 
-5.31121 3.66734 -14.1189 
-5.26898 3.81063 -14.0881 
-5.60408 3.5211 -14.3324 
1.41286 0.366834 -3.35406 
-5.12266 0.319632 -13.8258 
-0.0450218 -0.387272 -4.18471 
1.22663 0.968257 -3.61564 
-0.8648 -0.224085 -5.32824 
-0.0220756 0.362993 -4.46089 
-0.796634 -0.179929 -5.38504 
0.016701 -0.232441 -4.34602 
1.15747 0.611334 -3.63681 
0.599978 -0.438253 -3.48123 
-4.50734 2.72237 -13.7725 
-4.67771 3.45514 -13.7758 
-7.38831 0.965379 -15.1646 
-6.79518 1.65227 -13.5602 
-6.02038 1.00818 -13.2415 
-7.30571 -0.887458 -13.515 
-0.178399 0.0481399 -4.43572 
-0.54871 0.334623 -5.20799 
-8.7715 0.900396 -15.8943 
1.51665 -0.217279 -3.18237 
0.505681 -0.486989 -3.5871 
-4.81334 1.86394 -13.8961 
-7.16307 2.8583 -15.2571 
-5.34036 3.82142 -14.179 
-0.5765 -0.404958 -4.77985 
-0.412684 -0.379216 -4.59518 
-4.84934 0.768728 -13.7812 
-5.7301 -0.999777 -13.0652 
1.1924 0.30257 -3.57877 
1.37348 0.0343657 -3.37176 
-5.90231 1.14446 -13.1897 
1.25545 -0.559103 -3.448 
-0.13979 0.0589655 -4.44396 
-5.10754 -1.36899 -12.6267 
0.672673 -0.122033 -3.69535 
-0.0738631 0.358808 -4.49752 
-8.66948 -0.187947 -15.9449 
-4.484 3.1638 -13.7984 
-0.377405 1.06167 -4.74076 
-6.02107 1.57614 -13.1952 
-7.04965 4.30834 -15.2658 
-7.13905 0.638327 -14.1305 
-0.368859 1.14952 -4.70347 
0.0423208 0.274915 -4.39757 
-6.04525 3.19944 -14.4214 
-1.13732 1.79693 -6.17547 
0.0148258 -0.204068 -4.38002 
-0.934814 1.64042 -5.95606 
-6.35095 3.49045 -14.6185 
-0.136714 0.815721 -4.6203 
-5.74136 3.14679 -14.2827 
-5.9412 2.44182 -14.6186 
-6.10464 2.71314 -14.6335 
1.37215 0.830606 -3.41552 
-6.19905 3.51761 -14.5866 
-6.75262 5.04696 -15.0775 
1.15319 -0.440567 -3.57812 
-7.38887 -0.62165 -15.1169 
0.456119 0.370639 -4.14156 
-1.3145 0.159331 -6.2484 
0.702244 -0.239273 -3.5663 
0.645431 -0.541928 -3.43245 
0.481444 0.0975947 -4.07918 
-1.03231 -0.707225 -3.71478 
1.30311 0.641301 -3.48585 
1.18851 0.488442 -3.60084 
-5.33301 3.68673 -14.1887 
-0.0240878 0.345062 -4.46012 
1.50424 0.437848 -3.25163 
1.04843 0.322612 -3.7299 
-6.71036 2.61847 -14.9348 
-6.76345 1.78791 -13.5575 
0.798963 0.440804 -3.67956 
0.0122583 0.0944074 -4.42864 
-0.395943 -0.176529 -4.84462 
-6.21799 -0.986772 -12.9619 
1.42995 -0.299736 -3.26078 
0.0866318 1.23803 -4.2477 
-8.6685 4.98497 -16.1865 
0.134834 0.122897 -4.30016 
4.34172 -1.40154 8.16304 
-0.616177 -0.520087 -3.28961 
-4.96557 1.06837 -13.8181 
-4.86188 1.70235 -13.8156 
1.16764 0.816318 -3.64766 
-6.74169 5.07323 -15.0553 
1.2039 0.146548 -3.58465 
-6.44272 3.36967 -14.7461 
0.276318 1.27855 -4.16869 
-0.213605 0.0156538 -4.41362 
-8.62469 3.09829 -15.9856 
1.21035 0.457207 -3.59739 
0.902635 0.92007 -3.92648 
1.47553 0.97616 -3.30647 
-8.6252 1.31116 -15.881 
-7.1259 3.17533 -15.2153 
-0.359976 0.38441 -4.8397 
-5.97009 1.29462 -13.1198 
-1.29267 0.524767 -6.24641 
1.0626 0.984096 -3.76163 
0.079465 1.04389 -4.26406 
1.19443 0.615304 -3.60081 
0.95651 1.26321 -3.88985 
-0.152197 0.582834 -4.59326 
1.36496 0.961345 -3.4409 
0.0796668 0.123695 -4.34473 
-0.234645 0.948165 -4.72333 
-6.3566 3.19583 -14.613 
-0.152566 -0.573243 -4.19395 
-1.20576 1.97535 -6.26194 
-5.94067 3.05572 -14.5526 
-5.29152 2.86356 -14.0867 
-7.3776 2.49565 -15.3617 
0.0704458 0.408136 -4.37431 
1.51702 -0.309219 -3.16556 
0.710524 1.33819 -4.16887 
1.16828 0.331974 -3.60073 
1.47889 0.861819 -3.29907 
-5.21945 2.99018 -14.1055 
0.989831 1.17493 -3.86332 
-7.72009 4.68972 -15.5662 
1.13591 1.18387 -3.70827 
1.19869 0.612822 -3.60462 
1.19742 0.290647 -3.57659 
-8.49597 2.31602 -15.9495 
1.36861 0.236806 -3.38547 
-5.93944 2.45194 -14.5973 
-0.346832 1.18155 -4.70762 
-8.71863 3.3446 -16.0612 
-0.164882 -0.59279 -4.20549 
-0.843587 -0.218935 -5.35062 
0.473236 0.12197 -4.08131 
-0.338385 1.14699 -4.69861 
1.41384 -0.0920448 -3.30881 
-5.07832 0.13091 -13.8155 
-4.6417 2.74105 -13.8261 
0.459303 0.407247 -4.12359 
-7.09005 0.813401 -13.9821 
0.413946 0.775947 -4.03676 
-0.0196209 -0.232 -4.32314 
-0.0858815 -0.398451 -4.24675 
-7.35843 4.73122 -15.4689 
-5.05728 -0.299746 -13.7462 
-6.4728 3.13707 -14.5252 
-6.48271 3.48865 -14.7403 
-0.454841 -0.579364 -4.52932 
0.0883044 -0.569869 -3.93312 
-0.597626 -0.381954 -4.79291 
-8.86793 3.71491 -16.175 
0.0508414 0.145091 -4.38342 
1.27892 0.655634 -3.50593 
1.35625 0.957483 -3.45131 
0.136673 -0.36917 -3.99777 
-7.20002 3.20797 -15.2047 
1.41478 0.629939 -3.35781 
0.949143 1.20078 -3.90256 
-4.90376 1.73443 -13.8185 
-1.35729 -0.131557 -6.25895 
1.27905 0.652887 -3.49909 
1.07014 0.244832 -3.72071 
-8.86809 3.11408 -16.1233 
-8.60054 4.60823 -16.1071 
-8.7217 0.401966 -16.0087 
0.0338704 -0.0843988 -4.38673 
0.945376 0.951163 -3.88743 
-0.0224176 -0.0528871 -4.41674 
-6.07262 1.49447 -13.2757 
-5.20571 1.31518 -13.5985 
-5.89936 1.3682 -13.0152 
1.17356 0.634782 -3.63174 
0.0745586 1.09169 -4.26379 
0.0934063 0.0503286 -4.34553 
-4.5172 -1.28747 -13.3986 
1.41325 -0.722902 -3.25779 
1.26162 -0.848142 -3.42239 
-0.829532 -0.386011 -5.04168 
-0.697037 -0.559729 -3.33397 
-0.132951 -0.0232065 -4.40543 
-1.18501 0.999643 -6.17248 
-2.12983 -0.707465 -23.2326 
1.46247 0.45253 -3.29679 
-0.13387 -0.558552 -4.18177 
1.0313 0.466035 -3.75715 
1.25957 0.639907 -3.53858 
-5.49365 3.02469 -14.1121 
-8.78769 4.99671 -16.2619 
1.55779 0.798585 -3.20964 
1.09302 0.331467 -3.69333 
-5.53073 1.35222 -12.8065 
0.948056 1.14336 -3.8993 
1.11414 0.0407256 -3.63328 
0.705301 1.34378 -4.17247 
0.465276 -0.382159 -3.63676 
-0.122507 0.520757 -4.58142 
-4.62272 0.210411 -13.6922 
-5.0985 -0.722498 -13.7046 
1.56649 0.46309 -3.18476 
-5.56595 3.36086 -14.3379 
-0.563057 0.260427 -5.21206 
1.15815 0.636905 -3.64249 
-5.23723 1.12232 -13.6527 
-5.86303 -0.900025 -13.8669 
-0.0787051 1.14142 -4.38238 
-5.79693 -0.882583 -13.836 
-0.70994 -0.181029 -5.35742 
-6.02459 3.24612 -14.4329 
1.18453 -0.698426 -3.51832 
-1.33874 1.21917 -6.34867 
0.167819 -0.221235 -4.20412 
1.04365 0.785921 -3.76517 
1.56023 0.796555 -3.20652 
-0.0195612 0.400699 -4.46307 
0.354824 0.629155 -4.2485 
-1.23602 2.09993 -6.29864 
0.734811 1.27018 -4.13155 
-0.193622 0.781969 -4.67854 
1.17855 0.814956 -3.63539 
-8.5684 0.494073 -15.9168 
-5.97689 1.75783 -13.2371 
-5.64521 1.37505 -13.0863 
0.0115789 -0.263463 -4.31878 
-5.58313 -1.00551 -13.1228 
-4.69188 0.829524 -13.6712 
-7.31587 4.01733 -15.3861 
-5.668 1.35392 -13.183 
1.36621 0.975254 -3.43726 
-1.00361 1.45652 -6.00884 
-4.7586 3.1452 -13.9149 
1.29859 -0.186268 -3.42504 
-0.0510296 -0.078483 -4.42156 
-0.36177 1.12907 -4.69503 
1.36421 0.826918 -3.43745 
1.00289 0.0306801 -3.75974 
1.63093 -0.640833 -3.02426 
0.118846 0.0755098 -4.30492 
0.15666 0.397689 -4.28162 
-5.18725 1.26773 -13.5692 
0.00198374 -0.0460917 -4.40928 
0.705488 1.34267 -4.16938 
0.336605 -0.463322 -3.76832 
-6.10071 4.87073 -14.7496 
-0.33474 0.924388 -4.72233 
0.409986 0.392015 -4.17854 
1.2055 0.969411 -3.61723 
-1.31177 -0.309247 -6.19143 
1.11696 0.0364308 -3.63316 
-4.81032 -1.03038 -13.6072 
0.628383 1.36676 -4.26386 
0.350091 -0.478485 -3.72101 
1.33821 0.464837 -3.42898 
-6.21602 4.17125 -14.5811 
1.28085 -0.246359 -3.446 
-5.72696 1.83544 -13.3111 
-5.19774 1.28935 -13.61 
0.946576 0.599507 -3.86626 
0.424094 0.172896 -4.09796 
0.0133458 -0.263735 -4.31688 
1.11629 -0.205871 -3.63024 
1.41913 0.617676 -3.35613 
-4.65024 -1.2027 -13.4867 
1.2294 1.06522 -3.5874 
1.08194 -0.950351 -3.60538 
-6.47887 3.44488 -14.8005 
-0.494935 -0.906054 -3.3241 
-5.03298 1.15093 -13.8417 
1.43069 -0.719068 -3.22943 
1.62162 -0.717435 -3.02588 
-0.268909 -0.158832 -4.67462 
1.30668 -0.724596 -3.38527 
-0.082565 0.0577197 -4.46681 
-6.75069 3.27195 -14.9094 
-0.0237717 -0.0515344 -4.41595 
1.29665 0.748039 -3.49133 
1.23858 0.636448 -3.56122 
-4.43437 2.84882 -13.7381 
-6.80975 5.19197 -15.1492 
0.0168527 -0.117462 -4.41511 
-5.75971 -0.893927 -13.2864 
1.37888 0.984436 -3.43915 
-0.0743456 -0.0695484 -4.41321 
1.25825 0.820199 -3.54542 
-0.17068 -0.0267497 -4.40811 
1.27095 0.969029 -3.54388 
-0.102367 0.0312668 -4.4566 
-6.08077 1.60776 -13.2906 
0.117765 0.950698 -4.24194 
-7.24699 3.15458 -15.2386 
0.153348 0.150334 -4.27164 
-7.78633 5.40822 -15.6468 
-7.62158 0.252158 -15.3107 
1.53063 0.424771 -3.26412 
-5.879 -0.997609 -12.9275 
0.864466 1.36036 -4.01056 
1.2359 0.848552 -3.57139 
1.08023 0.986178 -3.75213 
-5.2024 1.29089 -13.6144 
1.43807 1.00419 -3.35141 
0.116347 0.00500202 -4.31305 
-4.65343 -1.07941 -13.564 
-6.71761 -1.13384 -12.774 
-1.12273 1.35918 -6.12707 
-0.107299 -0.186571 -4.49865 
1.2761 -0.723816 -3.41933 
1.01301 1.04691 -3.8287 
-7.33298 3.25684 -15.2775 
1.58483 0.612117 -3.17691 
1.40829 0.605037 -3.36204 
-4.37744 3.37816 -13.6204 
-1.27903 0.179789 -6.21333 
-7.05885 1.45538 -13.8346 
-5.64327 -1.1179 -12.8113 
-0.105536 0.0323457 -4.45462 
-5.31616 5.01696 -14.2225 
-0.122401 0.518681 -4.58352 
0.101206 -0.0257451 -4.31895 
1.20006 0.240427 -3.58906 
-6.36056 2.94652 -14.6572 
1.43698 0.988052 -3.36193 
0.410837 -0.457187 -3.69091 
-1.10333 0.503032 -6.0488 
1.12811 -0.436565 -3.60066 
-5.22493 1.81012 -13.7027 
0.787309 0.614199 -4.03685 
-4.94534 -0.769231 -13.7202 
1.29894 -0.182775 -3.42619 
1.53522 0.303796 -3.20806 
-6.13114 1.15558 -13.251 
0.981756 1.15938 -3.87175 
-1.02558 1.37118 -6.02197 
-7.17687 2.45973 -15.3864 
1.67275 0.513576 -3.07301 
-0.11929 0.0368588 -4.45613 
-6.58758 1.52591 -13.3996 
0.246724 -0.387502 -3.87241 
1.19681 0.253766 -3.57911 
1.41108 0.521749 -3.35511 
1.19419 0.472863 -3.59771 
-0.171475 -0.035666 -4.41342 
-8.17196 4.86826 -15.8079 
1.11186 1.18194 -3.72559 
-6.27551 3.20151 -14.5757 
1.38448 -0.262006 -3.32203 
-1.30502 1.96841 -6.36317 
-1.2789 -0.0397003 -6.20823 
0.609257 -0.989936 -3.39509 
0.598379 -0.452676 -3.48386 
1.5201 -0.452152 -3.1631 
-5.61962 -0.501589 -14.121 
0.813408 0.435085 -3.67804 
1.57324 -0.108957 -3.14113 
-0.118102 -0.0491003 -4.40919 
1.15129 -0.259785 -3.58801 
-4.49206 3.63983 -13.7263 
-6.33922 0.244639 -14.4964 
1.36687 0.182575 -3.38275 
0.93431 0.907593 -3.9109 
-0.194822 0.0829475 -4.44395 
-0.452308 -0.907086 -3.32137 
1.2197 0.133917 -3.5513 
-7.04355 1.59274 -13.7747 
1.58868 -0.459509 -3.09235 
-5.31895 3.14028 -13.9863 
0.584531 -0.470364 -3.4987 
-1.19181 2.08271 -6.25672 
-8.49608 5.30155 -16.0177 
-6.84815 3.15308 -15.0006 
-5.94051 1.38074 -13.1989 
-5.31288 3.86017 -14.1156 
-0.961685 1.50722 -5.96184 
-7.19113 3.53788 -15.3137 
-5.40965 4.14926 -14.1899 
0.588137 -0.457425 -3.49117 
1.53703 -0.23908 -3.16693 
-1.11517 2.1648 -6.17156 
-1.12507 1.96366 -6.16895 
1.35781 0.230232 -3.39025 
-8.0443 4.8287 -15.7587 
1.18403 -0.702814 -3.51675 
1.18926 -0.622125 -3.51474 
1.1207 -0.443484 -3.60654 
-6.25786 3.85994 -14.9113 
1.47253 -0.896868 -3.19319 
-0.705921 -0.965849 -3.31535 
1.40255 -0.431698 -3.29393 
0.594831 0.0809897 -3.95773 
-1.07103 1.05279 -6.04861 
-0.087021 0.0572584 -4.46309 
1.05071 0.789402 -3.76594 
1.39979 -0.720965 -3.26391 
-7.51024 -0.4042 -15.1466 
-1.32414 1.40793 -6.33901 
0.139201 0.251414 -4.28762 
1.11394 -1.07812 -3.4478 
1.48437 -0.164679 -3.22102 
1.52734 0.789807 -3.22912 
-6.18568 2.62256 -14.6919 
1.3903 -0.441821 -3.30382 
0.632684 -0.164328 -3.74497 
-5.0744 0.322901 -13.8555 
-0.837691 -0.107505 -5.36279 
1.22045 0.326437 -3.55521 
-0.359805 -0.379255 -4.54278 
-4.54535 3.4849 -13.7105 
-0.411719 -0.485177 -4.58544 
1.23552 -0.542564 -3.47005 
-7.53784 0.952251 -15.1984 
1.60246 -0.618384 -3.05436 
1.32032 1.08817 -3.48823 
-6.49084 3.20362 -14.5845 
1.2245 0.849333 -3.58584 
1.0163 0.630473 -3.79416 
1.4923 -0.451459 -3.18121 
-6.72403 4.8815 -15.0749 
1.43301 0.0230493 -3.30474 
0.40135 -0.462377 -3.69497 
-7.47528 -1.06422 -13.8967 
0.630843 1.36467 -4.26064 
0.569471 -0.359952 -3.53093 
-5.94573 3.85929 -14.5385 
-1.29256 0.666883 -6.25224 
1.30943 -0.745106 -3.38726 
-5.67173 -1.11599 -12.7207 
-0.637052 1.07325 -5.07742 
1.12317 1.25177 -3.72174 
0.594958 0.0812641 -3.9604 
0.381856 0.0956569 -4.09191 
-0.702544 -0.96186 -3.30355 
1.37768 0.1866 -3.37022 
1.44512 -0.558175 -3.22766 
-5.13567 1.904 -13.9596 
0.0420816 -0.176455 -4.371 
1.54478 0.498137 -3.20655 
1.15102 -0.225795 -3.57431 
-6.74396 4.84143 -15.0708 
0.401151 0.619156 -4.20129 
-5.05464 0.069273 -13.8799 
0.45443 0.284121 -4.13137 
-0.218625 -0.00726899 -4.41367 
1.26891 -0.511128 -3.43842 
1.28611 -0.177335 -3.43643 
-8.6391 0.994962 -15.8999 
-7.18256 3.12631 -15.1822 
1.10786 0.0426835 -3.63687 
1.58177 -0.675021 -3.08275 
1.21122 0.834106 -3.60086 
1.24767 -0.544992 -3.45877 
-0.929481 0.0203069 -5.40302 
1.05573 0.657417 -3.75597 
-0.435619 -0.777493 -3.32704 
-7.01963 4.80781 -15.2382 
-8.67728 0.508064 -15.9796 
-5.02706 0.683541 -13.9957 
-4.94302 -0.963117 -13.714 
-0.9221 1.66056 -5.92981 
1.60722 0.732173 -3.15419 
-5.32403 4.09529 -14.178 
-5.67837 -1.07438 -12.9198 
1.00955 1.09301 -3.83591 
-4.89969 -0.84568 -13.8112 
1.54363 0.805439 -3.21397 
-5.23537 3.70906 -14.0699 
1.41014 -0.568006 -3.27023 
-8.48293 3.57768 -16.064 
1.36108 0.930448 -3.43852 
1.43447 0.980691 -3.36975 
1.15028 0.482172 -3.61695 
-6.20527 2.97772 -14.6181 
0.0389525 -0.0431251 -4.39272 
-7.36933 2.92596 -15.3532 
1.34685 0.0290684 -3.39274 
-7.55201 0.206325 -15.2559 
1.18972 -0.625245 -3.51133 
1.53671 0.717179 -3.22645 
-0.218491 0.721468 -4.71379 
0.856533 0.767986 -3.96563 
1.42114 0.0184186 -3.32417 
1.48312 -0.107022 -3.23049 
-6.24904 -1.24565 -12.2674 
-6.12821 -0.950476 -13.0892 
-0.0628639 0.301571 -4.48695 
-8.69204 0.70048 -15.9322 
-1.33303 0.148857 -6.26537 
1.33819 -0.261019 -3.38971 
1.09862 0.350676 -3.67847 
1.5623 -0.23552 -3.13576 
-7.38458 3.28738 -15.2882 
-6.44503 4.92654 -14.8496 
1.43681 -0.218187 -3.26661 
1.3291 0.45438 -3.44062 
-1.24359 0.887657 -6.22601 
-4.88601 3.51811 -13.9071 
-7.54197 0.972439 -15.3213 
1.40636 0.231997 -3.34966 
-5.76741 3.71955 -14.3845 
-0.243214 -0.533182 -3.27752 
1.49308 -0.168883 -3.21189 
1.63059 -0.389324 -3.04233 
1.28186 0.101438 -3.45973 
-1.04655 1.08274 -6.0442 
-1.1602 1.41578 -6.16819 
-0.249362 -0.395582 -4.40932 
1.42759 0.989807 -3.3721 
-0.13241 0.557999 -4.59312 
-0.73268 -0.488964 -4.93833 
1.10331 -0.346176 -3.62823 
-1.13788 1.60945 -6.15252 
-0.250039 -0.407542 -4.41834 
-5.18547 0.945836 -13.6492 
-6.46476 1.65569 -13.4033 
1.4912 -0.533596 -3.18379 
0.23814 -0.249977 -4.24547 
1.15641 0.732899 -3.6432 
1.4139 -0.4147 -3.27545 
1.60109 0.591961 -3.15691 
1.37943 0.224763 -3.37609 
1.40957 0.624188 -3.36628 
1.64029 -0.39067 -3.03371 
1.02938 0.971205 -3.79411 
-5.10398 -0.766631 -13.7786 
-1.1879 -1.12302 -3.65487 
-0.381149 -0.185253 -4.82838 
-5.63194 -1.02431 -12.7267 
1.53795 -0.189504 -3.16425 
-6.60096 4.35938 -14.9636 
-1.24701 0.522818 -6.20442 
-6.43245 2.8343 -14.684 
-0.311406 0.295793 -4.76857 
1.31876 1.03262 -3.48452 
1.41959 0.511415 -3.34271 
-5.7838 -0.518226 -14.464 
1.63145 0.62479 -3.12771 
1.35891 -0.58791 -3.32755 
1.46181 -0.600036 -3.21048 
-6.60646 1.66829 -13.4496 
1.3643 -0.246002 -3.36622 
1.42689 -0.312998 -3.26436 
1.57277 -0.210901 -3.11878 
-4.96911 0.848773 -13.84 
-4.85553 -0.835176 -13.703 
-4.47988 1.23133 -13.5485 
1.47335 -0.456455 -3.21244 
1.27358 -0.338166 -3.43929 
-5.91223 0.948039 -13.1893 
-1.19914 0.949615 -6.18183 
0.953318 0.618562 -3.8572 
-5.451 -0.874317 -13.4699 
0.712702 -0.297158 -3.5116 
1.41774 0.58658 -3.35621 
1.48774 -0.49083 -3.18289 
-4.51869 0.846624 -13.5819 
0.99531 1.12466 -3.84572 
-0.36211 -0.573264 -4.4242 
-0.217022 0.0438977 -4.41838 
0.914081 0.951249 -3.93531 
0.498569 -0.997534 -3.52855 
-1.11753 1.31679 -6.11458 
-4.62406 1.12943 -13.6564 
-4.82414 1.1655 -13.757 
0.102301 0.0681723 -4.32307 
0.48966 0.111513 -4.07688 
1.29614 0.630058 -3.4943 
1.3781 -0.917871 -3.29233 
1.10472 0.0430134 -3.63954 
1.43041 0.555486 -3.33061 
1.01662 0.631467 -3.79248 
1.13728 0.150195 -3.63036 
1.23829 0.88851 -3.57658 
-7.4699 3.7333 -15.4381 
1.10781 0.0187857 -3.64477 
-4.86093 -0.653655 -13.6774 
0.146611 -0.30144 -4.11321 
1.09541 0.355395 -3.68648 
-0.0590843 -0.0557775 -4.40834 
-8.7598 2.81176 -16.1244 
1.27464 0.418458 -3.48121 
-0.00946738 -0.138162 -4.38256 
0.935548 0.945926 -3.90883 
-0.554717 -0.831993 -3.32732 
1.50131 0.0209037 -3.23583 
0.100105 1.15602 -4.21126 
1.57134 -0.154194 -3.15606 
1.3065 -0.112719 -3.42698 
0.317045 -0.0984217 -4.24932 
-4.70369 -0.807687 -13.5538 
-6.12002 -0.949499 -13.0724 
1.14376 0.492923 -3.63368 
-0.00318227 1.01667 -4.32708 
-8.76773 0.483448 -16.0156 
0.418046 0.119099 -4.07164 
0.148799 -0.118066 -4.26293 
-6.16594 3.89618 -14.6371 
-0.581685 -0.521188 -3.28672 
1.354 -0.246721 -3.37494 
1.0161 1.04742 -3.82505 
1.16868 0.567918 -3.61495 
1.52245 0.623312 -3.24473 
-5.07212 -0.807133 -13.7446 
-5.97905 1.15988 -13.1351 
0.949162 1.068 -3.88557 
0.376329 0.291837 -4.20612 
-7.50447 3.22985 -15.352 
-6.97929 1.18977 -14.4242 
-0.0535903 0.109263 -4.55686 
-6.78465 1.43876 -13.5806 
-6.09369 -1.02756 -12.8522 
-4.93062 0.889521 -13.8499 
1.09619 1.07862 -3.74955 
-1.02276 1.45574 -6.00713 
1.34279 -0.837382 -3.32502 
1.56843 0.00536993 -3.1448 
-4.68675 -0.836087 -13.565 
0.495715 -0.3935 -3.6 
-0.496576 0.134023 -5.06746 
-5.4135 4.21434 -14.2168 
1.42786 -0.112747 -3.30872 
-8.68782 2.7501 -16.1155 
0.734274 1.25913 -4.13549 
1.0359 0.316688 -3.72956 
1.05336 0.658878 -3.75057 
-0.0886338 0.128318 -4.56475 
1.29489 -0.255794 -3.4351 
-4.54921 3.36045 -13.7246 
1.32137 0.453375 -3.46379 
-8.0213 3.31779 -15.7607 
-5.60421 -0.416648 -14.1266 
1.42696 -0.225796 -3.26247 
-0.20545 -0.0107574 -4.41509 
-5.85488 0.86156 -13.1905 
1.10471 -0.585715 -3.60929 
-7.15377 -0.809962 -13.64 
0.930042 1.2737 -3.93488 
-4.65253 3.56814 -13.8066 
-5.0512 -0.368117 -13.867 
1.20887 0.465902 -3.57541 
1.22558 0.369018 -3.55766 
1.2414 -0.109179 -3.50726 
-7.39269 0.72613 -15.1838 
1.64691 -0.0798175 -3.05153 
-6.74412 2.78836 -14.9225 
-4.51169 1.53109 -13.6842 
-5.94653 1.42315 -13.1358 
1.38943 -0.57053 -3.29567 
0.380268 0.0842005 -4.10081 
1.11491 -0.353616 -3.61885 
-5.38484 3.95193 -14.1657 
1.43538 0.931884 -3.33548 
-8.76572 5.31502 -16.1735 
-6.87819 2.87695 -15.111 
-0.0807446 -0.0420475 -4.40269 
0.796645 1.26452 -4.07087 
0.626912 -1.04 -3.33567 
-1.04483 0.879434 -6.01756 
0.429873 1.23985 -4.01427 
-6.94453 0.597849 -14.5847 
0.526731 0.167494 -4.04942 
-5.01211 -0.969787 -13.5863 
-6.99949 -0.902241 -14.0265 
-0.358127 0.363252 -4.83232 
1.3529 0.851435 -3.43836 
-4.81168 1.17206 -13.7192 
0.682631 -0.317298 -3.50289 
-5.02049 0.90329 -13.8797 
-8.78877 0.0703686 -16.0217 
-1.08782 0.535565 -6.04078 
1.06982 1.08442 -3.7611 
-5.94994 1.05903 -13.1988 
1.2334 0.930818 -3.58494 
-0.0273551 0.442998 -4.49043 
1.23504 0.440422 -3.5489 
1.36536 -0.356062 -3.33549 
-6.4545 -1.32323 -12.2387 
1.4764 0.634789 -3.28599 
-5.49504 -1.05082 -12.9993 
-5.59729 4.14191 -14.2966 
-5.77712 1.83031 -13.4105 
1.02863 0.78169 -3.77795 
0.874865 1.35356 -4.00294 
0.150641 -0.285382 -4.14979 
0.333624 -0.397175 -3.78307 
1.52549 0.634774 -3.25276 
-5.41265 4.21294 -14.2208 
1.29647 -0.147799 -3.43797 
1.28478 0.092849 -3.45588 
1.33723 0.0458227 -3.39324 
1.4294 0.221152 -3.31909 
-7.20078 -0.635668 -14.3347 
1.59043 0.026164 -3.13222 
1.27633 -0.454769 -3.4329 
-0.664818 -0.887713 -3.32434 
-0.0304932 0.280362 -4.47879 
1.08008 -0.648516 -3.62813 
1.44633 -0.709413 -3.21905 
-5.42493 -0.896098 -13.6216 
-0.794539 -0.266236 -5.34413 
0.448412 0.134937 -4.07512 
-0.639933 0.210812 -5.26484 
-8.84862 3.5811 -16.1362 
-0.0260476 0.328917 -4.46418 
1.50705 0.638669 -3.27207 
1.07279 0.0291861 -3.67439 
-1.07157 2.19165 -6.12923 
1.22091 0.0385062 -3.52623 
-8.13593 4.79044 -15.7617 
-5.93679 1.83732 -13.2252 
-5.28707 1.73559 -13.7636 
1.61084 -0.380435 -3.06651 
-1.15689 1.40321 -6.1428 
-5.18204 1.76067 -13.6974 
1.1442 0.638022 -3.65426 
-0.0234828 -0.287792 -4.30084 
-8.51729 3.59733 -15.9679 
1.49241 0.880872 -3.30021 
-4.68768 0.946949 -13.6845 
1.12249 0.640552 -3.68113 
0.494842 -0.472732 -3.59862 
0.611543 1.43554 -4.27925 
-6.803 5.10054 -15.0385 
-8.41704 3.15995 -15.9571 
1.11913 -0.443459 -3.60692 
-7.73706 4.73768 -15.5971 
-4.8811 0.957556 -13.8413 
0.863439 0.752649 -3.97387 
0.496613 -0.69566 -3.57036 
1.30393 0.437799 -3.4702 
-0.928867 -0.115905 -5.41416 
1.36434 -0.624707 -3.31869 
0.40122 0.736035 -4.05678 
-0.225979 0.0358072 -4.41416 
1.37977 0.960152 -3.42791 
-6.29908 1.4573 -13.3007 
-7.53302 0.414093 -15.2314 
-8.08658 4.26498 -15.9074 
1.28536 0.817182 -3.52405 
0.320969 0.210858 -4.2659 
1.18704 -0.258048 -3.55272 
-4.86943 3.41086 -13.8642 
1.54828 0.794385 -3.2168 
-6.87271 2.83057 -15.0975 
1.10574 -1.07173 -3.47186 
1.37233 -0.248324 -3.36423 
1.52478 0.304387 -3.22477 
-6.35744 0.0328778 -14.5231 
1.09661 1.07744 -3.74635 
1.23166 0.748713 -3.56111 
-6.4566 3.10656 -14.589 
-5.98124 3.06309 -14.4874 
-6.9213 5.34806 -15.1347 
-0.653321 0.0456175 -5.31767 
-6.74129 4.92623 -14.9942 
1.60874 0.636622 -3.16024 
1.19125 -0.0173615 -3.54602 
-0.92515 0.897486 -5.89392 
-7.51846 0.877495 -15.2 
1.20028 -0.445201 -3.51077 
-6.80996 5.12223 -15.0934 
-5.39762 -0.244305 -10.2395 
-4.87336 -0.79008 -13.6764 
-8.66395 0.416286 -15.9519 
1.51032 0.599095 -3.25417 
-4.64212 4.24633 -13.9016 
-7.66225 0.0399233 -15.2691 
1.33327 0.427467 -3.43597 
0.857091 1.1317 -3.99066 
-5.586 3.38793 -14.2728 
-4.97325 0.454065 -13.8688 
-5.15949 1.85256 -13.6351 
-7.15265 -0.814952 -13.6304 
-4.95971 0.00316277 -13.803 
1.44533 -0.558957 -3.23186 
1.20961 -0.738402 -3.48681 
1.3441 0.904002 -3.45055 
-0.0161517 1.11746 -4.33751 
1.2143 0.00170241 -3.52626 
-4.97761 0.0240689 -13.8545 
1.40385 -0.24952 -3.31921 
1.32459 0.985084 -3.4746 
1.3999 -0.346558 -3.30225 
-4.87315 3.94928 -13.9217 
1.3199 1.09954 -3.48993 
0.388746 -0.458154 -3.70628 
1.2425 -0.0526192 -3.49858 
-1.42253 2.03237 -6.49597 
0.79825 0.454226 -3.68678 
1.59469 -0.12045 -3.10648 
-1.27881 1.03383 -6.27596 
1.19637 0.1635 -3.55976 
1.47177 -0.562508 -3.20471 
0.484683 -0.911751 -3.56252 
1.29072 -0.124707 -3.44824 
1.19166 -0.922957 -3.49424 
-6.64628 1.47092 -13.4649 
-0.433459 -0.814908 -3.32567 
-0.0992263 0.157095 -4.57348 
1.24872 0.837373 -3.55031 
1.60174 0.181758 -3.12375 
0.948239 1.30107 -3.91125 
1.15944 0.226275 -3.61356 
-4.86464 0.437797 -13.7558 
1.14219 -0.326963 -3.58142 
-6.80912 -1.3405 -12.2971 
1.43212 0.8187 -3.35212 
0.41593 -0.441564 -3.68164 
-8.96465 3.14947 -16.2083 
-6.02041 1.34409 -13.4791 
1.5956 0.00983614 -3.13481 
-0.77013 -0.539473 -4.94612 
1.6776 0.615317 -3.08165 
-0.0482447 -0.0178553 -4.41075 
1.23655 0.358989 -3.55926 
-5.93836 1.7914 -13.1756 
0.978577 1.28857 -3.87515 
0.907541 1.3342 -3.95277 
-7.28816 5.38062 -15.3886 
0.319735 -0.363511 -3.80501 
1.25928 0.0188376 -3.4777 
-6.6354 -1.3519 -12.305 
1.57607 0.857153 -3.19807 
-5.21127 -0.829208 -13.4572 
-6.79483 2.94682 -14.9612 
1.06073 -0.486111 -3.66716 
1.34822 0.077234 -3.39008 
1.47564 -0.441099 -3.20195 
0.449023 0.135126 -4.0753 
1.58165 0.179908 -3.14306 
0.815244 0.399528 -3.64403 
1.4394 0.538131 -3.32269 
1.23769 0.302646 -3.5335 
-0.223347 0.00265215 -4.41435 
-0.460548 -0.258823 -4.86864 
-0.114478 -0.0874763 -4.43275 
1.38171 -0.892781 -3.28488 
1.14111 -0.186276 -3.59352 
-5.22076 -0.689496 -13.5877 
-0.154655 -0.0283829 -4.40066 
1.23803 -0.496264 -3.4599 
-4.42442 1.1143 -13.5002 
-1.20307 0.983105 -6.18645 
1.48443 0.840437 -3.29465 
1.14754 -0.579697 -3.57126 
-0.0990845 0.0449924 -4.46254 
-0.25263 -0.484006 -4.41725 
-8.74997 1.32444 -15.9715 
0.391253 -0.996748 -3.60846 
1.55686 -0.475458 -3.12845 
1.29287 0.852641 -3.50565 
-5.12801 -1.35947 -12.5333 
1.30012 0.657323 -3.49199 
0.513808 -0.361402 -3.58617 
1.37221 0.202589 -3.38236 
-4.67543 -0.787733 -13.5773 
1.61707 0.645695 -3.14186 
0.527855 -0.805755 -3.521 
1.36357 0.113343 -3.38544 
1.11722 -0.423732 -3.60494 
-4.59326 3.73719 -13.7025 
1.31932 -0.236005 -3.40525 
1.11884 -0.665251 -3.58421 
1.3954 0.610638 -3.35441 
-8.4415 3.1037 -15.9168 
1.44613 1.00758 -3.37679 
-5.38467 3.1061 -14.1071 
1.26629 -0.715856 -3.44316 
1.19433 0.337359 -3.57951 
1.56634 0.662703 -3.20187 
1.43176 0.817799 -3.34998 
-0.235084 -0.351682 -4.39985 
-8.30928 3.70676 -15.7198 
1.36234 0.0796199 -3.37793 
-5.92598 1.45084 -13.1709 
-4.63358 4.00604 -13.7571 
-4.7173 3.34521 -13.8883 
-0.692941 -0.930112 -3.33324 
1.24031 -0.741562 -3.46568 
-7.36947 0.115129 -15.2211 
-8.21064 4.65937 -15.8789 
-6.83811 -1.27663 -12.4743 
-6.66375 4.95357 -15.0146 
1.24724 0.00701451 -3.48052 
-4.55413 1.09474 -13.6182 
1.24462 0.94878 -3.57463 
1.55617 -0.450225 -3.12336 
-1.29768 -0.0794551 -6.239 
1.35491 -0.285906 -3.35134 
0.682087 1.3243 -4.19438 
-0.324498 0.496006 -4.75055 
-4.60333 1.65381 -13.6583 
0.0351137 -0.052069 -4.38615 
1.52207 0.357217 -3.22729 
-5.06956 0.476843 -13.8595 
1.54652 -0.2243 -3.1638 
1.26509 0.273252 -3.49049 
1.4586 0.618877 -3.3195 
1.08273 0.257596 -3.69764 
-5.41318 3.87289 -14.5144 
1.5917 -0.00453107 -3.13211 
1.54411 -0.120306 -3.17601 
-1.06706 1.07773 -6.05027 
-4.55261 4.15268 -13.7624 
1.31675 0.747365 -3.47173 
-6.51986 4.40667 -14.9238 
-0.334454 0.460906 -4.7957 
1.31592 0.0585637 -3.42321 
1.30382 -0.570167 -3.39221 
-5.73666 1.98363 -14.4157 
-7.11778 5.53925 -15.3086 
1.13099 0.0843745 -3.62971 
0.968038 1.14094 -3.88856 
-7.06993 -0.743054 -13.8239 
1.63304 0.914014 -3.14786 
1.1874 -0.442743 -3.52473 
1.36299 0.891615 -3.43593 
-5.16751 0.83791 -13.7892 
1.29092 0.67708 -3.49579 
1.56473 -0.626164 -3.09337 
0.502294 -0.567723 -3.48485 
-0.0729549 0.38106 -4.51361 
-0.353363 -0.445299 -4.50844 
-4.681 3.57555 -13.8124 
-4.77271 -0.642893 -13.6972 
1.5294 -0.213436 -3.17162 
-5.27761 0.931796 -13.7518 
1.41985 -0.0646554 -3.30374 
1.19843 0.808099 -3.61143 
-7.07228 -0.643049 -13.8156 
0.542163 -0.888066 -3.48997 
0.78861 0.949649 -4.06161 
-5.05649 0.547744 -13.5446 
-7.20881 3.45885 -15.236 
1.54938 0.738483 -3.21331 
-5.43854 4.08364 -14.096 
-0.621011 0.465224 -5.25068 
-8.49906 3.50007 -15.9013 
0.29716 0.666268 -4.33955 
1.57803 0.591311 -3.17888 
1.32611 0.147263 -3.42132 
1.28939 0.698836 -3.49764 
1.06429 0.776058 -3.75302 
1.55861 -0.136227 -3.16224 
0.706003 -0.319543 -3.51213 
0.373703 -0.349531 -3.73807 
-6.95192 5.31279 -15.1508 
1.09801 -0.41451 -3.61855 
1.38055 0.143186 -3.35761 
0.358518 0.722871 -4.23919 
-7.54128 0.784491 -15.2986 
0.858264 0.386526 -3.65909 
-8.5388 3.1352 -15.9343 
0.441226 0.180377 -4.10612 
1.33159 1.0838 -3.47909 
0.81512 1.35615 -4.06216 
0.0908486 0.408057 -4.35793 
1.28201 -0.119522 -3.45604 
0.609213 -1.0541 -3.33274 
1.50982 0.0295922 -3.21567 
1.47407 0.0240393 -3.25893 
-1.29577 -0.0727619 -6.22513 
0.965718 0.610699 -3.83102 
-0.609096 0.474259 -5.25094 
-0.931312 1.01339 -5.89773 
1.53057 -0.627693 -3.13659 
-5.1886 1.9244 -14.0161 
-0.623358 0.350866 -5.2552 
1.59884 -0.262735 -3.09716 
1.22075 0.160225 -3.55165 
1.43232 0.928378 -3.33258 
1.10762 -1.07179 -3.47716 
1.30006 0.387105 -3.47061 
1.30465 1.064 -3.49243 
-7.43758 3.12785 -15.287 
1.12445 0.982057 -3.69944 
-6.24316 -1.02258 -12.8033 
0.834608 1.17545 -4.01665 
1.3278 -0.585389 -3.36957 
-6.40298 0.116662 -14.5978 
1.14159 -0.422611 -3.57851 
0.94418 0.795981 -3.88676 
-0.0859732 0.0704443 -4.46902 
0.682849 -0.134169 -3.68101 
1.37983 0.143646 -3.3587 
-0.471695 1.1206 -4.8046 
-0.151578 0.801824 -4.64694 
0.402583 0.0855317 -4.0799 
-7.32963 3.81614 -15.2998 
1.09592 -0.434864 -3.62557 
1.00364 0.453013 -3.78803 
-6.85788 4.98621 -15.1813 
1.50484 0.389101 -3.25975 
-5.57148 -1.11813 -12.8205 
-1.29475 -0.0799176 -6.23293 
-5.31714 3.11673 -14.1521 
-6.35105 1.66343 -13.3683 
1.21932 0.0430841 -3.52582 
1.52712 -0.214116 -3.17228 
1.38149 -0.717478 -3.28554 
-5.16289 3.09263 -14.0695 
1.23166 0.407661 -3.53802 
-0.771421 -0.214447 -5.38532 
1.22916 -0.341205 -3.49568 
0.742498 1.24444 -4.13212 
1.03013 0.640197 -3.77479 
0.488153 0.10493 -4.07396 
-0.948809 0.138151 -5.44131 
-8.46434 5.33536 -15.9928 
0.163249 -0.303791 -4.11378 
1.18545 0.00476722 -3.55751 
1.33681 -0.454098 -3.3774 
1.67425 0.543599 -3.07481 
-4.62232 1.70629 -13.6014 
-4.38452 0.835806 -13.5162 
-4.78422 -0.620198 -13.6892 
1.55268 0.398543 -3.19361 
-5.44424 -1.19726 -12.8018 
0.968434 1.23655 -3.89341 
-4.85894 1.58161 -13.7998 
-5.00159 -0.904993 -13.7368 
-8.6199 0.66938 -15.8412 
-5.16448 0.919937 -13.6889 
-8.65734 3.72812 -16.1162 
1.53028 -0.107989 -3.17947 
-5.60459 3.71654 -14.2944 
-0.161804 0.127032 -4.50041 
0.800756 0.954769 -4.05299 
-0.884621 -0.374086 -5.09705 
-5.33539 4.55603 -14.2325 
-7.41396 0.138699 -15.2397 
1.32722 -0.585261 -3.36763 
0.480775 -0.464654 -3.61181 
1.0702 -0.437065 -3.65332 
1.67919 0.459334 -3.06888 
1.55221 0.398724 -3.18796 
-7.22785 -0.705236 -14.3805 
1.31415 1.10803 -3.49472 
-0.0882821 1.11305 -4.58331 
-0.12894 -0.00735253 -4.42993 
-4.81458 -0.694813 -13.7252 
-8.42888 5.33572 -16.1681 
-7.25588 2.84513 -15.2783 
1.61695 0.530209 -3.12942 
1.1627 0.626429 -3.63611 
-7.31222 5.47058 -15.4065 
1.48666 0.992325 -3.30307 
-0.43415 -0.81357 -3.32589 
-0.181316 0.0246091 -4.42226 
-6.31737 1.65849 -13.3332 
-0.292163 -0.574642 -4.35929 
-6.61072 4.83863 -14.9372 
1.45275 0.645983 -3.3102 
1.04353 0.251081 -3.73928 
1.4183 0.601346 -3.35572 
1.62779 -0.353062 -3.05046 
-5.00129 4.34274 -14.1491 
-5.38665 3.71268 -14.1519 
0.655469 -0.108514 -3.70379 
1.1424 -0.260666 -3.5836 
-7.07479 -0.63318 -13.8148 
0.768555 0.610796 -4.05284 
-0.107959 -0.371874 -4.25859 
-5.57309 3.3552 -14.268 
1.21315 0.941528 -3.59155 
0.697305 -0.326663 -3.51446 
1.14092 -0.309374 -3.5756 
-1.13893 2.24931 -6.19981 
1.18325 0.332919 -3.5836 
0.988863 0.458187 -3.8025 
-6.34919 -1.36346 -12.1372 
1.44654 -0.716016 -3.21349 
0.471516 0.418142 -4.1187 
1.34958 -0.868589 -3.32086 
0.520503 -0.297865 -3.71231 
1.55489 0.410515 -3.18777 
0.0832048 -0.375579 -4.06987 
1.19142 -0.109149 -3.55037 
0.512435 -0.866996 -3.53165 
-4.69334 3.35384 -13.809 
1.60547 0.621889 -3.15802 
-6.59957 1.45663 -13.4366 
0.30843 0.203544 -4.27229 
-4.90416 -0.192806 -13.6571 
1.36311 0.106139 -3.38428 
-5.45045 -1.19943 -12.8174 
1.5013 0.456407 -3.2537 
-5.72699 -0.971067 -13.1291 
1.63322 -0.221878 -3.05517 
1.24251 -0.0271285 -3.50622 
0.358244 -0.337236 -3.75474 
0.719101 1.26822 -4.14473 
0.468468 0.333519 -4.13438 
1.4863 0.588589 -3.27568 
-7.11594 1.0132 -13.8368 
1.26532 -0.571675 -3.43783 
-4.77563 2.73601 -13.9015 
0.473513 -0.868473 -3.5744 
1.55872 0.545913 -3.19614 
-7.16273 0.925658 -13.8903 
-4.39907 1.62539 -13.5549 
-6.68023 2.64737 -14.8984 
-4.96237 -0.948433 -13.8334 
1.5156 -0.639829 -3.14918 
-4.4802 0.131717 -13.5893 
-5.45311 2.8778 -14.0863 
1.50019 -0.470869 -3.18482 
1.3592 0.974515 -3.44293 
0.379309 0.98371 -4.06935 
-4.5124 3.62929 -13.7215 
-7.91785 5.12062 -15.6319 
0.606947 -0.585391 -3.35548 
1.3602 0.651218 -3.42484 
0.305653 0.0651074 -4.26555 
1.46418 -0.455218 -3.22224 
-4.94418 1.38936 -13.8502 
0.743095 0.901715 -4.09945 
1.17865 -0.456352 -3.54773 
-0.617479 0.429302 -5.25366 
1.32481 0.835928 -3.47709 
1.306 -0.264908 -3.41744 
-4.75134 1.06776 -13.7169 
1.51928 -0.748195 -3.13861 
1.62845 0.473466 -3.11454 
0.152659 0.194833 -4.27707 
1.30752 0.174127 -3.44906 
1.63058 0.464362 -3.11407 
1.27601 0.634468 -3.51823 
1.62094 -0.164135 -3.06901 
1.36263 0.841547 -3.42812 
1.07816 1.00624 -3.75427 
-7.4736 3.97752 -15.3959 
1.53486 -0.447932 -3.13359 
-7.31709 3.79062 -15.2865 
-7.01375 3.2091 -15.148 
-5.19725 3.54571 -14.062 
-8.33921 4.80913 -15.9955 
1.36264 -0.795045 -3.29978 
0.583767 -0.218475 -3.72704 
1.32093 0.856966 -3.47369 
1.33875 -0.920773 -3.33073 
-5.06127 0.039393 -13.8043 
1.32264 1.10705 -3.48532 
-1.17912 0.977464 -6.17539 
1.1269 -0.27473 -3.60761 
-0.209004 0.000707147 -4.41812 
-0.634745 0.25086 -5.2687 
1.61214 0.549328 -3.13615 
-6.04104 1.2411 -13.1875 
-6.17668 2.57493 -14.7486 
-4.84143 3.50312 -13.8942 
1.32264 1.1076 -3.48622 
-0.306872 1.48513 -4.53272 
-1.04089 1.46395 -6.03266 
1.53866 -0.206698 -3.16383 
1.35289 0.362046 -3.4063 
-0.673642 -1.12282 -3.26534 
0.805152 1.27386 -4.0617 
1.65386 -0.0651662 -3.04278 
0.732195 0.319211 -3.61236 
-1.16982 0.934699 -6.17036 
1.2354 0.422995 -3.53295 
-5.60569 3.92941 -14.2059 
1.62003 0.490663 -3.1268 
-0.934349 1.50605 -5.92656 
1.51658 -0.887722 -3.13259 
1.20605 0.823049 -3.61007 
-4.54302 1.17846 -13.6182 
1.32274 -0.130539 -3.4222 
-8.04517 5.39407 -15.7678 
1.05479 0.0897171 -3.70085 
1.07444 -1.0339 -3.56468 
1.58655 -0.262626 -3.1056 
1.08694 1.04941 -3.74666 
1.3443 0.058198 -3.39227 
-0.359021 -0.860395 -3.31929 
-7.49732 -0.666187 -15.158 
-6.76007 -1.37661 -12.265 
1.53503 0.45275 -3.22555 
0.920864 0.612234 -3.90614 
-0.690277 -1.12171 -3.26214 
-0.661108 0.169959 -5.27704 
1.44359 0.607063 -3.3165 
1.29297 0.884935 -3.49974 
0.97354 0.533618 -3.8303 
-7.62187 0.48199 -15.2685 
1.45643 0.380077 -3.29809 
1.31002 0.239843 -3.44563 
0.961123 0.564504 -3.84486 
-8.21926 4.97605 -15.8765 
0.847253 1.3374 -4.01926 
-7.73676 5.00113 -15.5025 
1.43325 0.518301 -3.32586 
-0.319825 -0.464281 -4.49459 
-0.69728 -0.935362 -3.33844 
-0.00121165 -0.391952 -4.14246 
1.58582 -0.879251 -3.06642 
1.08885 0.0314404 -3.65855 
0.380568 -0.705923 -3.69148 
1.16443 -1.0312 -3.48068 
-0.171288 -0.510108 -4.32124 
1.30275 -0.0411099 -3.42477 
-1.15498 -1.12434 -3.58891 
0.960597 1.12897 -3.8945 
-1.11874 1.47147 -6.12364 
0.979787 1.12411 -3.86679 
-0.574008 -0.53228 -3.2965 
-5.11648 -1.02067 -13.3793 
-5.11092 -1.02615 -13.3343 
0.615988 1.48004 -4.27668 
-8.14496 4.69796 -15.886 
0.103691 0.385641 -4.33938 
0.720964 1.43986 -4.15054 
1.0937 0.964606 -3.75305 
1.04741 0.659327 -3.75685 
-4.85839 4.20603 -13.9324 
0.473062 -0.868522 -3.57249 
-7.22648 -1.03078 -13.5196 
1.45998 0.59037 -3.30661 
1.3892 0.567534 -3.37862 
0.313247 0.915393 -4.31927 
-6.7281 2.62536 -14.8541 
-6.58481 1.65473 -13.474 
1.4478 -0.718357 -3.23573 
1.19703 -0.0549428 -3.54542 
0.353412 -0.359547 -3.75723 
1.45526 -0.11008 -3.2758 
-7.42147 -0.62537 -14.9892 
1.27495 -0.74379 -3.43281 
-6.08361 1.29723 -13.127 
-0.162323 0.00285648 -4.43876 
1.52909 0.331204 -3.21862 
0.770966 1.30735 -4.09631 
0.926029 0.829543 -3.89628 
-7.33941 3.70357 -15.3217 
-1.04779 2.21511 -6.11164 
1.05257 -0.275813 -3.69297 
1.61058 -0.212855 -3.08398 
-5.07194 0.028335 -13.8183 
1.13516 0.0155729 -3.61597 
-5.25404 3.54472 -14.1045 
-4.89019 1.03083 -13.8252 
-1.08915 0.707367 -6.03563 
1.38941 -0.350837 -3.31001 
0.468001 0.0729659 -4.07477 
0.567923 -0.224164 -3.72529 
0.121641 0.0295958 -4.30254 
0.754594 1.14726 -4.11658 
1.47056 0.317051 -3.27491 
1.3003 0.464338 -3.469 
-8.11804 5.23977 -15.8286 
-0.805583 -0.277081 -5.32978 
1.29356 0.139389 -3.45595 
1.17401 0.393512 -3.5982 
-0.199861 0.884451 -4.69777 
-5.02419 -0.902368 -13.7843 
1.56816 -0.570575 -3.10294 
0.996787 0.591188 -3.82424 
-4.38444 1.16472 -13.5453 
-0.645732 -0.410527 -4.8516 
-7.01095 -0.748967 -14.6031 
-0.34262 0.270894 -4.80897 
1.55655 -0.513084 -3.11849 
0.461657 0.160499 -4.08819 
1.61352 0.760681 -3.16005 
1.13586 1.20607 -3.7071 
1.5192 0.263737 -3.22875 
-8.02443 5.03583 -15.7943 
-0.627252 0.35139 -5.25511 
1.36124 0.17061 -3.38691 
1.17937 0.0194509 -3.58223 
1.5321 0.384468 -3.2159 
-0.377619 -0.975483 -3.29845 
1.27455 -0.0713526 -3.45471 
1.0212 -0.114213 -3.74076 
1.07688 -1.04464 -3.53333 
1.03632 1.28246 -3.81147 
1.54282 0.907503 -3.2343 
0.941755 1.15851 -3.90308 
1.00468 0.609238 -3.7888 
0.469099 -0.859211 -3.57609 
-0.151549 -0.537482 -3.33535 
-4.57972 3.87938 -13.77 
1.42499 0.546271 -3.3362 
-5.54228 -1.38645 -12.2134 
1.29574 -0.560399 -3.39292 
-6.0002 2.48434 -14.4822 
1.27908 0.810364 -3.52869 
0.89651 0.623517 -3.9248 
0.106435 1.3046 -4.24178 
1.5931 -0.610221 -3.06828 
-0.495957 -0.485057 -4.67964 
1.09609 -0.27906 -3.63889 
1.54446 -0.77039 -3.11461 
1.12821 0.00275084 -3.62661 
1.49823 0.622836 -3.26888 
-4.46794 3.36948 -13.688 
1.29003 -0.853496 -3.39704 
1.06599 1.04254 -3.7627 
0.69335 -0.162139 -3.66293 
-5.95672 -0.305513 -14.5292 
-5.10942 -1.38477 -12.5603 
-6.2399 4.10282 -14.7346 
1.62021 -0.0638629 -3.08513 
-8.70639 3.68406 -16.0592 
-8.57624 -1.82638 -17.8426 
1.56836 -0.879171 -3.08018 
1.48607 -0.534334 -3.18864 
-7.54826 -0.615997 -15.1923 
1.6023 -0.607278 -3.05544 
1.63659 -0.623421 -3.01715 
1.03893 0.718393 -3.76109 
-0.783998 -0.0479768 -5.398 
-7.13535 5.48448 -15.3127 
1.0605 -0.465217 -3.67966 
1.14298 0.0615461 -3.61595 
1.34382 -0.149458 -3.37616 
1.17857 0.55594 -3.61123 
-5.30301 -1.2115 -12.8432 
-8.20346 4.84516 -15.8517 
1.40452 0.0523332 -3.33193 
1.11729 -0.593603 -3.5961 
1.41144 -0.248598 -3.30604 
1.43812 -0.0890662 -3.28387 
1.36509 0.21839 -3.3869 
1.10306 -0.00662622 -3.65696 
0.721092 1.44098 -4.15393 
-4.59524 3.97708 -13.7482 
-4.73669 3.54807 -13.7978 
1.60274 -0.133673 -3.09934 
1.572 -0.748536 -3.09393 
-7.48815 3.30091 -15.3787 
1.47028 0.433686 -3.28127 
-8.50574 3.0923 -15.8455 
-1.04588 1.13096 -6.0294 
1.39688 -0.838411 -3.26518 
0.13409 0.313017 -4.28973 
1.41087 -0.07297 -3.30955 
-1.21806 0.936069 -6.17883 
1.37952 0.378606 -3.3848 
1.35759 -0.435056 -3.3407 
-6.26937 -1.30249 -12.3696 
-7.1491 -0.789115 -13.7412 
-8.17143 5.36672 -15.8306 
0.469691 -0.675939 -3.58167 
0.446065 -0.142931 -4.10606 
0.407352 0.126922 -4.07394 
1.16491 0.522079 -3.61283 
-8.69546 0.873816 -15.9559 
1.51057 0.232368 -3.24096 
-7.0861 1.0551 -13.9056 
0.127674 0.0479712 -4.29175 
1.64635 0.2384 -3.08404 
0.63226 1.4714 -4.26128 
1.54188 -0.561079 -3.14497 
1.57574 0.445036 -3.16294 
1.24591 -0.570664 -3.45723 
1.26631 -0.329935 -3.44984 
1.35481 -0.440077 -3.34332 
1.5573 -0.177343 -3.14169 
1.42331 0.491232 -3.34483 
1.53311 -0.233749 -3.17172 
-7.50912 0.868727 -15.3786 
